# .PCD v0.7 - Point Cloud Data file format
VERSION 0.7
FIELDS x y z
SIZE 4 4 4
TYPE F F F
COUNT 1 1 1
WIDTH 1486
HEIGHT 1
VIEWPOINT 0 0 0 1 0 0 0
POINTS 1486
DATA ascii
-72.325485 -19.6791 -137.35947
11.489671 116.16148 -21.081507
-44.792164 23.953869 -98.827522
1.0467989 113.93142 -36.221107
12.949999 -40.997173 -18.809734
-58.834446 115.67969 -116.99466
-43.960629 110.42657 -95.896194
-36.9076 88.08828 -88.181702
-74.845612 -8.0060749 -137.47862
-76.025856 34.886654 -140.57626
-49.56028 -41.938557 -103.80672
-57.991528 -41.294971 -119.71811
4.8182597 -36.283527 -28.410826
-71.675606 -5.377511 -135.82657
-33.196114 91.313736 -83.10675
6.2260342 117.60242 -28.543922
6.6339664 -39.311615 -27.5229
-82.218254 97.238693 -150.05148
-27.288187 98.901939 -74.064117
-71.913742 -27.793114 -135.29843
-51.504757 69.517715 -106.91756
11.665801 103.24462 -18.790226
13.897816 -41.685181 -18.480999
4.2153883 109.47468 -31.005779
-79.763214 103.20744 -145.9825
9.6746578 112.74617 -23.665569
16.107887 114.40518 -15.536927
-77.084007 52.798775 -142.81688
-6.2045093 115.74633 -45.598873
-33.010921 -14.628604 -82.543678
-15.091635 118.14771 -56.204708
-41.251431 85.769608 -93.388817
7.2646108 -41.682808 -26.183168
-24.197157 119.7198 -69.46225
9.8285198 103.41007 -21.227079
-30.731916 -24.821289 -77.938957
-74.508629 45.565384 -141.28069
-26.845289 117.29541 -72.716316
8.9730511 -34.325668 -24.617302
-17.791851 107.57391 -61.255856
-51.603371 71.214729 -105.37521
-28.934025 -33.699253 -74.68882
-48.069798 0.64177775 -102.76782
5.7407479 -41.048325 -28.637222
-46.680595 7.5836926 -100.7958
-45.513535 15.258765 -99.204033
-37.47081 -11.954561 -88.804871
-45.879612 111.07177 -99.340134
-71.8815 -37.870922 -131.97032
12.436451 117.46809 -17.525385
-21.085447 119.9436 -63.214058
-48.971256 74.084282 -103.79439
-2.1880739 110.1785 -38.44503
-9.0266724 116.50857 -48.323982
6.8677073 -32.696445 -23.948004
6.3131866 114.48581 -26.603861
-15.10415 108.84965 -55.256844
-46.38176 -33.439018 -96.852898
11.89981 102.6752 -16.53669
-45.67218 46.987019 -99.140633
-43.581192 84.075089 -96.126114
-39.211887 110.94237 -90.268982
-31.930775 -16.583019 -79.848877
-47.011173 -6.8781614 -100.86219
-30.635485 -23.018665 -77.37191
-44.66423 -29.356003 -96.703484
-43.429195 -8.6644096 -95.858261
7.3775516 113.6454 -24.730988
4.6954455 -36.617603 -29.247072
-45.170322 42.263233 -98.172005
-44.898083 81.343971 -98.120819
-59.582237 -44.115047 -116.75214
-50.215336 113.52189 -104.88934
8.3408403 105.54033 -24.001226
-34.380497 -36.936909 -80.306618
-30.078529 -38.021706 -75.636642
-37.928993 -29.359659 -86.587471
0.86354834 119.24323 -33.54668
-46.780922 79.722733 -100.16891
6.2896504 -43.864449 -25.969864
0.60613811 117.19884 -34.951958
-10.076719 118.06875 -48.828369
-29.386406 -29.459173 -75.106133
-55.532452 -43.551445 -113.25257
-4.1090655 117.24794 -41.282532
-76.506851 108.5121 -140.77991
5.4136376 119.14459 -27.085712
9.0399351 115.05255 -21.753624
10.164194 -36.268433 -23.428947
15.516704 108.02636 -12.897031
-45.048687 32.320683 -96.45993
15.032926 104.40387 -11.58853
-75.635254 24.598879 -139.69298
-75.092613 -22.339233 -137.63414
1.271539 109.17245 -34.580357
-4.9125376 109.68337 -41.299122
-19.749256 -46.138714 -62.370869
-68.879585 115.13475 -129.96233
-21.914366 -45.268246 -65.300926
10.780041 116.8459 -19.520329
3.2880549 108.57984 -30.470402
-23.019802 -47.589584 -66.756882
-24.170679 -42.586773 -68.435478
-27.742273 117.9648 -72.810371
-25.125551 -45.111572 -69.571838
-72.794495 113.563 -135.29193
5.961863 117.3321 -26.205761
-19.961828 -44.556179 -62.38961
-4.2863264 119.56081 -40.15448
-42.836544 -29.225039 -92.354607
7.0630383 -38.998917 -18.482943
-24.85619 120.67584 -69.015518
12.112807 -43.248253 -15.613849
-15.744489 118.68204 -55.737316
-83.567047 65.001404 -149.7169
-20.945236 -48.739372 -63.037647
-64.998024 -42.52787 -123.69812
-37.899906 -31.104052 -84.713943
-22.244036 106.10963 -65.296494
-47.989948 -5.6765132 -99.240417
-30.92021 -21.62277 -76.198616
-49.057892 57.741394 -101.00414
-36.260639 -33.866085 -83.353836
-33.744999 -12.739161 -80.740578
-11.612507 118.55447 -49.675209
-23.734644 -40.078156 -67.123947
-27.811985 -39.14386 -72.138641
-20.991394 106.5158 -62.282501
15.189573 99.632812 -9.5802765
-48.027187 -3.755208 -99.168419
14.23893 100.56857 -8.3614702
-35.653778 -10.44874 -83.041351
-76.285751 9.4358788 -139.05698
0.6535809 -41.467529 -31.026297
-38.875294 -8.9218292 -87.177948
6.4258723 -43.669403 -24.205362
-47.651726 1.0839933 -99.756454
11.27576 -42.786331 -14.994336
-3.3449283 -43.045979 -38.710663
-52.426399 -44.126358 -106.19924
-45.179359 25.090115 -95.894554
-22.540966 -42.368786 -64.879181
-2.0959783 -44.125629 -36.809822
-43.426949 86.729034 -92.872032
-4.1256347 -45.849232 -39.178707
-40.967663 110.88474 -89.89389
2.7945092 -45.36235 -28.195704
12.27412 115.26982 -13.626328
-23.808762 -49.382477 -66.22448
-85.701187 71.411003 -151.78679
-46.51749 7.8515372 -97.822166
-25.9921 -37.092766 -69.342407
5.5981226 -32.390266 -25.326031
2.1542828 -44.079517 -29.677446
1.6240101 -36.270691 -29.915642
5.0008183 119.87708 -25.896532
-30.09358 117.25652 -73.892303
-26.22159 -46.847542 -69.779213
5.1679277 118.5507 -25.068338
-44.990459 110.94096 -94.83149
-25.377909 -36.092186 -67.270012
-31.501001 -43.292095 -74.291344
-45.600025 15.505308 -96.27375
-80.82399 -9.2910757 -140.13084
-28.581486 -43.403111 -72.120132
-4.3270707 109.36382 -38.595596
-77.039497 -1.2167801 -138.79025
7.3266711 105.15604 -23.123734
-61.579388 117.58736 -117.31072
-1.3238372 108.06751 -34.083595
-38.8237 89.245537 -85.435638
-35.770737 91.434547 -82.251991
-2.8718438 -47.397602 -36.362259
-40.912804 88.052734 -88.049507
-70.98526 -42.164253 -129.73782
-48.040874 -38.963051 -98.202324
-18.616608 -46.075302 -58.519901
-3.9629276 -39.356106 -37.335835
-18.98612 -43.931946 -58.98756
-4.052186 119.42912 -38.1404
-68.149788 -43.187328 -126.31824
-81.10762 45.234356 -141.55582
-46.032951 -32.330467 -92.89183
-3.1201997 -39.953609 -36.214855
-26.334059 120.67268 -68.766129
-51.740154 114.68732 -103.20586
-16.014671 118.08904 -53.924728
-19.558208 119.13725 -59.182938
-79.365501 -31.286959 -137.28622
2.3341701 108.04316 -29.457632
-46.466103 82.123207 -97.09024
11.181704 116.77784 -15.990001
0.35845119 -43.880798 -31.407726
-86.74337 79.493797 -152.07779
5.487514 115.429 -25.0835
11.895053 115.96212 -15.16604
-51.292793 74.166107 -102.82267
-24.444044 121.02557 -66.11219
-10.701478 117.89723 -46.492645
-82.755966 60.534 -146.41011
-24.892641 104.27956 -67.480988
5.9448385 114.53093 -23.198132
-1.1032906 -44.074692 -33.351353
-24.049997 106.17831 -64.326347
3.2330558 119.47501 -28.529745
-6.2837181 -42.299141 -39.935158
-61.244675 -46.397278 -114.68543
2.0105736 -33.112553 -28.639837
-14.801841 109.21334 -51.506302
-50.386623 81.813805 -97.167557
-81.894104 51.222385 -142.78299
-56.993595 116.85387 -110.08361
-7.177547 -44.528088 -41.306316
8.9419546 103.27802 -17.45418
-28.005175 -28.821899 -69.395706
-77.805023 -14.38 -139.20766
-49.703148 -42.832066 -99.336517
-2.1652477 -42.758224 -34.69458
-0.82769775 -46.305244 -32.225048
-86.866089 86.624199 -151.48061
-34.452644 114.38307 -79.34433
-79.08902 29.449163 -140.25066
-65.818077 -45.267479 -121.08968
2.6637843 -33.51907 -28.237988
-17.33732 -44.619179 -55.621647
-6.456049 -39.105099 -38.827427
-70.559509 116.624 -128.8504
-5.4355593 -48.123272 -38.678654
-83.841949 57.309608 -144.90714
-0.37383729 -39.374088 -30.908749
-28.258793 -49.245453 -68.733574
-42.268753 110.45115 -89.146049
-77.516678 -26.152308 -137.3445
-84.622025 101.74564 -147.18867
-78.510635 110.149 -139.49968
-53.716335 71.013519 -104.33838
-5.6665397 109.82989 -37.328449
4.8556132 -45.463791 -23.593815
-45.852131 -7.0989199 -94.429153
-17.220184 -47.54678 -54.574238
-33.08532 -14.543483 -77.12899
-7.8733139 -45.973785 -41.819504
5.6435108 -33.405067 -23.951698
-34.493809 -11.484292 -78.643608
-87.024857 92.939774 -150.53035
-1.6270878 118.11404 -32.001961
-24.848373 120.21555 -64.847527
-43.255623 88.674568 -90.447678
1.7942102 -32.597748 -26.51412
-19.006229 -49.054626 -55.2747
-26.067776 -51.62463 -64.095406
-65.580597 118.22462 -120.69916
13.491618 106.75063 -11.582115
-74.889969 114.905 -134.11681
3.5980918 119.08415 -25.846125
3.148093 -46.133289 -25.949169
-31.107477 -21.681139 -73.907768
-52.306866 -45.2038 -102.89993
-9.6948071 -42.368824 -43.927238
-37.127899 -8.6511984 -81.626251
-75.412102 -42.792976 -133.49901
-79.38195 21.4638 -140.08292
-76.508057 -33.793736 -135.468
3.8843594 115.24852 -24.246334
-20.368416 117.51493 -58.195915
6.4194031 105.32882 -21.939114
-69.446434 -45.989647 -126.00578
1.3399638 108.16475 -28.581043
-16.974646 108.75834 -54.149147
-40.814487 -7.6106195 -86.073997
-77.781219 -40.649532 -135.56371
-9.0975456 -47.440567 -42.091629
-18.275421 -42.302147 -55.588772
7.2817116 103.9951 -18.670258
-81.538879 -17.728701 -139.84494
-21.693882 -42.406662 -63.093178
-2.0096121 -40.676552 -32.351204
-26.94891 -33.976471 -64.750244
-51.968327 114.39204 -99.510063
-27.119217 120.45156 -67.687302
-30.395983 116.39474 -71.589828
-35.400566 113.20203 -78.745911
-24.160553 -38.377705 -63.437492
-26.456839 104.1164 -67.364685
-46.437988 41.675217 -94.58847
-43.309574 -30.409319 -88.713974
12.65507 101.69086 -8.4365683
-64.523186 -47.326317 -117.28165
-27.784817 119.40096 -67.180725
-3.4534495 108.78961 -33.39156
-80.016136 13.504704 -139.96385
6.527225 115.12366 -20.274647
-47.421375 46.837677 -95.27787
-80.509872 36.868801 -140.73436
-12.413192 114.7561 -45.57037
-45.268879 110.39753 -91.847435
-4.5690808 -38.911957 -35.204697
-44.80196 -30.917391 -90.904526
-30.786526 114.38065 -71.889626
-12.460599 -40.903515 -46.038589
-37.559898 92.484222 -81.108437
-21.116035 107.75082 -57.84343
-17.450573 114.72234 -52.523708
-47.829208 84.617935 -94.939003
8.1281223 117.14417 -17.453022
-48.203232 2.8911769 -92.757996
-45.542324 87.317398 -92.337852
-4.2008185 -48.786366 -35.487785
-6.7755551 -37.328339 -36.102558
-46.120457 29.219831 -92.654976
-41.620296 -30.557407 -84.461159
-18.700699 -40.798164 -54.460094
-41.532024 110.33395 -86.184212
-35.491425 111.10012 -78.061317
4.4768915 -44.810558 -22.077147
0.0036114729 -34.057762 -28.610886
6.7186456 -37.825966 -18.965029
-55.673672 -46.715046 -105.64703
-14.737941 110.20641 -49.30727
0.34143928 117.47951 -27.133572
6.8642511 -40.370472 -16.308548
-2.6286135 -47.938007 -31.294432
-9.2553482 -39.647064 -41.600132
-49.104599 52.316952 -96.274727
-0.46674651 -35.978012 -28.930883
-3.166497 -40.80912 -33.980556
-57.122818 117.09886 -106.82895
-18.101526 109.58627 -53.627914
-22.149158 -50.782803 -59.092651
-43.425701 89.655998 -87.729141
-25.507847 117.85925 -63.821648
-46.372387 18.62641 -92.012779
-81.134705 -2.3587484 -140.01711
8.4373713 104.00972 -15.913894
-85.999985 105.92987 -143.22922
-23.834551 -39.483902 -60.936764
-48.679863 -38.717552 -94.025948
-80.945427 5.0561342 -139.94308
1.1777428 115.93104 -24.648029
4.333724 112.96333 -21.226917
-68.513344 -48.509792 -120.87907
-4.26863 116.562 -34.711174
-41.104683 109.5519 -84.487061
-63.483498 119.08955 -114.03745
-49.466843 78.756264 -99.650757
-73.928322 -52.389313 -127.73528
-35.346764 -40.184021 -77.914871
-20.815355 112.60934 -55.465523
-87.817543 98.38723 -148.41769
0.9753955 108.47063 -26.974091
-28.029764 116.39963 -65.970291
6.0681453 106.16991 -19.715454
-32.355282 -20.907812 -71.626167
-26.420471 106.62603 -64.826294
-16.582067 111.90053 -50.711555
8.5570736 -43.547222 -12.549109
-50.831268 56.986317 -97.829742
-34.247646 -13.372334 -75.352386
-28.84783 116.21433 -66.8246
-1.0033243 109.09019 -28.640888
-33.832932 111.13098 -74.675873
7.3232622 -42.577332 -11.765982
-30.318281 -24.726223 -69.789322
-4.773416 -37.704937 -33.779018
-42.281887 107.839 -84.838234
-72.584923 117.71402 -127.54655
-30.464186 113.67028 -69.882629
-21.40173 -39.794319 -57.346287
10.074434 116.2531 -12.086386
-38.661903 -35.60527 -81.815796
1.9561379 -33.022556 -22.579369
-35.818775 -9.9913435 -77.054741
-4.8498096 111.7297 -33.78336
-10.543678 -48.730553 -40.892498
-7.3090568 112.21704 -37.715973
1.6922718 -46.458614 -22.913403
3.0750656 -44.859837 -20.830173
-2.850909 115.45737 -31.422882
-6.4073691 114.12434 -36.476082
-42.656906 90.507088 -85.47908
5.85991 114.77859 -18.469797
9.1247826 117.87037 -15.148616
-9.6502953 -38.614384 -40.130825
-33.573112 108.4031 -73.588272
-19.040165 111.00506 -53.468006
-46.093086 109.83672 -90.863853
-26.774849 116.20356 -63.600227
-40.331032 -31.757866 -83.047684
-3.7100711 110.26048 -31.131859
-78.234589 -48.848526 -134.6127
-75.87764 -50.894466 -131.38083
-6.1826587 -49.324219 -36.232006
-52.814392 61.874271 -99.897049
0.21183698 -46.74527 -26.906591
-21.683392 108.67086 -56.275166
-38.022163 -8.0776634 -78.525612
1.82876 113.93317 -24.150476
-30.225031 111.82262 -68.722153
-68.109093 119.1469 -120.39156
-37.795483 109.00563 -79.240082
-83.569756 -38.224285 -139.25784
1.2729986 109.0602 -25.510763
-40.571068 92.531715 -81.942551
-36.359524 105.46625 -76.516098
-70.463737 -49.959778 -122.68602
5.2414179 108.10667 -19.240835
-52.923252 -45.786598 -100.00221
-83.205704 -2.8310573 -140.54218
-45.238407 89.963997 -89.354156
-18.359049 -49.395035 -51.528286
-80.916023 111.56783 -137.61818
6.6639996 105.13046 -15.336315
-0.37037838 -32.433022 -25.88875
-23.944956 -39.310867 -59.306168
-77.037132 115.67771 -132.97673
-83.406967 39.740829 -141.43692
-2.6788273 -38.655487 -29.664557
3.4298155 110.79504 -21.712181
-3.9912176 -39.977779 -31.073713
-30.621822 -49.546825 -67.909859
1.1197324 -32.984818 -24.333199
-83.227959 -46.691826 -138.95483
-48.807983 90.971542 -89.638306
-27.681181 107.57489 -64.758751
-22.922281 111.3476 -56.448433
-5.6091189 -39.399998 -33.333084
-28.670601 111.30817 -64.870163
-26.129303 -37.668465 -61.297112
-42.406643 106.70988 -83.444298
-45.761681 107.72755 -87.930809
-48.226822 -5.679709 -91.749405
-29.577097 109.32664 -66.111183
-46.949177 -6.5283661 -91.146538
-48.568127 -37.179615 -92.070969
0.67129153 -34.014957 -19.55415
-48.870605 -3.9168346 -91.309135
-55.958405 69.738213 -102.31852
-45.41296 -31.838463 -88.402939
-85.934181 54.4324 -144.44585
-60.795376 -48.115131 -109.82604
-36.959892 -40.752991 -75.961029
-40.550308 -7.0357099 -81.936386
-66.946823 -50.163345 -115.81893
-50.12133 111.85335 -95.105522
-27.379158 110.01412 -63.107296
11.481112 101.73844 -7.6771803
6.4931622 116.90901 -16.098671
-85.538231 48.45248 -142.75281
-32.274117 -23.238911 -68.851929
-25.479025 109.07659 -60.148273
-21.28249 -39.245068 -54.317188
10.428912 114.08794 -11.370171
-7.8555336 -37.992046 -36.042656
-28.851992 108.01111 -65.436485
-34.437798 -17.520853 -71.939079
-33.700623 107.20217 -71.696785
-40.058117 102.08233 -79.723152
-40.044552 95.874275 -79.150742
-59.85873 117.9039 -107.21952
-25.457657 -51.705036 -59.095013
-0.9438659 112.13618 -26.101358
-35.579605 -13.511097 -73.118553
-84.726311 -56.488308 -139.45421
4.9823389 110.44559 -17.931627
-85.264236 -44.303242 -140.46019
-26.669647 110.48567 -60.89584
-1.7820486 114.91798 -26.785891
10.589107 114.92555 -10.547238
-85.554474 -19.808605 -140.47125
-57.96566 -48.048908 -104.37616
-83.793816 31.5702 -140.62898
-41.613171 105.22186 -82.082825
-22.17499 109.89735 -55.710049
7.8606076 117.94093 -14.703405
-3.3491125 112.5686 -28.573494
-11.232903 -39.228325 -39.889015
-36.913651 -10.221004 -74.737579
-40.575554 -35.336166 -79.529373
-50.889893 -43.128201 -94.951859
6.7643304 106.23392 -14.675031
5.2695336 107.87055 -16.136854
-1.3447685 -46.598911 -26.607767
-6.6612005 -49.273529 -34.038864
-36.495556 101.22464 -74.21183
-25.668524 -39.353195 -58.281467
-17.494633 -39.566582 -48.50238
-57.098763 73.462654 -102.25753
-28.860527 -33.892376 -63.302483
-41.921009 -31.183443 -81.932114
9.3534184 115.73161 -10.814249
-55.350178 115.18519 -100.38281
-84.004982 9.80021 -139.70923
-28.195082 -51.906929 -62.323338
-33.370647 -46.209412 -69.45694
-82.895462 -50.040031 -138.54543
-53.220257 80.485657 -97.689217
-70.514305 119.28153 -120.65836
-90.729156 65.978699 -149.23759
-84.941811 2.2135692 -140.23306
5.1897078 111.7513 -15.803452
-91.726357 71.988197 -150.56248
-48.909958 -37.139462 -90.727882
-3.8143933 -36.187538 -26.419386
-47.05682 93.301613 -87.048553
-34.448189 -21.022926 -69.806847
9.3949471 111.25533 -9.8238373
-84.385422 26.6124 -140.29556
-19.678341 -49.343735 -51.330921
-86.183914 -8.2068558 -141.15823
-11.535359 -48.33424 -38.81216
-45.99826 -32.37999 -85.785812
-38.140934 102.0249 -76.113876
-47.43771 8.2752428 -92.714111
5.4831505 -42.110603 -12.188622
-88.290283 -24.256773 -141.08087
-1.1779827 -32.078144 -23.679007
-17.0259 -41.636131 -46.873432
-12.007232 -41.587059 -39.8601
-9.7152586 -39.495277 -36.483582
-44.024929 -29.913038 -83.540253
-48.160805 16.755718 -87.638466
-74.859802 -56.358181 -126.10942
-86.987549 -34.482433 -140.48627
6.8632488 114.98131 -13.864676
-92.267326 79.849998 -150.58723
-52.091816 111.85258 -94.880249
-9.8962469 -48.712639 -35.97168
-45.226654 93.551918 -84.47303
-23.247417 -40.588734 -54.617859
-49.748325 108.20012 -91.096886
-48.221806 105.16457 -88.173538
-44.576725 -30.4485 -84.796478
-86.997055 -119.75474 -143.0369
-5.468554 -40.06361 -32.100212
-8.1584854 -38.972004 -33.359131
-43.176773 100.51889 -82.176826
-86.40892 -117.11785 -142.0041
10.234029 105.36128 -8.0040045
6.3010035 115.1201 -14.222159
-0.26474375 -34.089378 -19.232271
-86.669548 -113.56731 -141.5141
-92.035141 86.713097 -149.7782
-33.405617 -47.977905 -65.913605
6.1190028 109.50684 -14.010204
-22.97789 -49.424522 -53.713467
-20.265039 -48.624203 -50.384483
-87.460457 -112.84612 -142.26363
-61.975471 -49.133118 -108.10628
-43.285641 96.10778 -81.344551
-33.326012 -26.470301 -66.586555
-21.634701 -44.415203 -50.764404
-5.4356661 -40.787548 -28.750603
-90.055916 61.884201 -146.81329
5.6654787 110.06973 -14.215768
-81.580147 -61.314373 -133.79832
10.188555 103.68129 -7.0955548
-38.504581 -38.603493 -74.890671
-3.7923036 -46.210476 -27.318678
9.6669407 112.24228 -9.2087841
-68.673119 119.46859 -116.233
-4.2457137 -38.778511 -28.113134
-10.266018 -41.408203 -36.583588
-69.704643 -52.703907 -117.42907
-52.2682 90.009712 -91.249229
-85.01416 21.5564 -139.65086
-7.438972 -47.775414 -31.364996
-48.755623 41.435093 -90.277679
-91.676102 91.594093 -149.02815
-48.028542 28.895021 -88.234467
-1.0648972 -45.434067 -22.764441
-54.284801 -45.521557 -96.864151
-88.457085 -126.50471 -142.94452
-86.502357 108.58415 -139.77542
-1.3504189 -32.211155 -20.187037
-89.012115 -113.40441 -143.63719
-18.347055 -44.372562 -46.54932
-52.215858 -42.194538 -92.638229
-50.218174 47.501907 -91.180092
7.3908386 110.62766 -10.70122
8.9861984 112.01022 -8.7745047
-44.138775 -29.029995 -80.243675
-42.700138 98.739235 -80.522789
-42.051834 -6.9644265 -79.918243
5.7612071 -42.852798 -11.691661
-3.8569069 -34.221931 -25.824598
-39.38842 -8.5929203 -76.201324
-26.696333 -50.180386 -56.673328
-47.999271 21.653881 -87.552437
-89.216553 -56.825584 -142.93173
-53.089748 85.711472 -94.282227
-34.781895 -43.787594 -68.956879
-7.0338006 -42.007565 -30.665741
-66.79705 -51.03252 -113.20837
-60.711044 117.00349 -104.24899
-90.09507 -113.92143 -144.06989
-27.671915 -41.501553 -57.535011
-51.700836 52.487808 -92.797325
-16.548512 -46.405308 -43.810181
-78.480888 -105.70279 -129.23944
-23.428368 -47.104095 -52.858322
-36.389156 -40.703629 -71.103256
-27.304262 -39.406887 -58.751595
-48.324791 104.42318 -87.041771
-88.78553 -123.35358 -142.61288
-50.254112 -39.42886 -89.478188
8.8562078 106.67519 -7.9016004
-90.235687 58.642723 -145.21625
0.58680135 -43.761093 -19.654617
-12.284013 -44.057655 -38.093014
-12.58077 -46.216339 -37.85408
-88.354012 -115.45659 -142.04095
-46.72736 96.344269 -84.534653
-76.519829 -60.206032 -125.96396
-80.195801 -105.75995 -131.48537
-46.118679 -31.286844 -84.105484
-49.541527 -6.6872969 -86.025528
-66.817543 119.02885 -111.1998
-36.950493 -18.651415 -70.827469
-49.254543 102.06388 -86.870705
-78.883621 -107.12102 -129.47731
-0.33405423 -44.39135 -20.170757
-53.87093 56.253105 -94.008591
-30.681559 -35.917068 -62.529179
-78.315094 -107.15945 -127.22887
-87.206017 9.9106274 -139.49745
-76.188881 118.85549 -125.21718
-80.924591 -101.80934 -131.41261
-90.622055 102.076 -145.48853
-6.3426867 -44.487736 -28.971762
-88.076279 -63.584721 -140.64488
-82.069763 -91.011658 -133.68913
-79.800415 -108.09206 -129.95708
-57.520279 114.56959 -99.571655
-88.734451 -121.06805 -143.10735
-77.944237 -91.786751 -127.77559
-45.24876 -28.90707 -82.162285
-80.736526 -108.68719 -130.93117
-90.394897 -8.4338789 -142.16196
-79.800781 -103.70634 -130.43015
-91.376389 -114.46898 -143.79025
-93.505943 101.09435 -144.91861
-87.278831 -0.9911347 -140.71153
-81.797844 -86.994705 -132.95801
-80.919968 -65.988083 -130.74799
-82.069412 -104.48276 -133.09091
-55.923351 62.497608 -97.695465
-10.487771 -47.560009 -34.623993
-11.225463 -44.393738 -34.738148
-89.891479 -53.719296 -143.09386
-10.386585 -42.176811 -33.726707
-38.741463 -11.878015 -72.699165
-78.937576 -103.1477 -128.76489
-4.7889314 -39.057144 -26.019594
-49.575153 98.565735 -86.554924
-24.278837 -44.677219 -53.387218
-4.2220497 -42.866024 -25.412796
-49.268208 2.034935 -87.858932
-72.689262 120.14637 -118.81663
-30.291346 -50.763 -61.591492
-51.591732 104.25388 -89.403526
-73.051353 -59.06366 -119.44672
-89.80043 -122.7501 -141.81177
-88.112961 109.91287 -137.53137
-9.0643215 -45.385693 -31.345293
-89.783852 -118.84885 -142.47685
-28.491377 -39.218285 -60.098766
-84.283661 -102.78776 -134.41302
-3.058567 -32.654907 -23.884523
-74.253471 -91.29213 -121.01359
-69.567368 -54.03149 -115.52071
-80.936142 116.50773 -130.86385
-90.090157 51.309185 -143.66051
-86.783516 16.6626 -139.24297
-77.819221 -85.326622 -126.80304
-64.911598 117.90147 -107.139
-88.706329 42.799538 -141.97369
-55.420971 -44.323971 -94.239449
-84.992683 -95.262817 -136.55226
-60.552494 70.054817 -98.644493
-9.0359716 -40.642311 -32.336098
-89.339539 -123.6374 -141.09274
-2.299315 -43.061504 -20.597227
-85.182747 -66.641197 -136.9857
-35.070923 -40.442158 -67.923767
-3.4016457 -32.426472 -24.608879
-34.232216 -29.536865 -65.871246
-80.799721 -104.0484 -130.43779
-55.383026 110.2002 -94.636871
-89.692413 -70.206322 -141.90154
-10.992851 -45.992176 -34.16153
-36.497768 -22.658752 -69.178024
-57.867607 80.442047 -97.745476
-79.264214 -100.80601 -128.78168
-86.350739 -104.08506 -137.26631
-80.083656 -107.1028 -128.63211
-31.993752 -48.978844 -63.236935
-0.090683885 -32.581234 -19.275803
-80.240814 -107.59875 -127.25297
-59.466488 -47.811901 -101.106
-33.971146 -38.044262 -65.810143
-50.144073 94.640533 -87.803337
-94.065063 105.6422 -142.01878
-32.056034 -36.807598 -63.564407
-83.199997 -106.3317 -133.38707
-75.059212 -85.50312 -121.93658
-79.255394 -107.9258 -126.48441
-45.13084 -27.003178 -80.267265
-86.196167 -86.961662 -137.88492
-83.250565 -82.318573 -133.06555
-77.486725 -102.17645 -123.57455
-76.37928 -62.492378 -123.86883
-41.101891 -9.6399164 -74.514656
-90.006805 -68.398834 -141.94098
-89.339699 -109.37589 -139.61899
-88.563339 36.326599 -140.89664
-88.127472 -98.816048 -139.25064
-78.738518 -104.18633 -125.69849
-79.793373 -109.18924 -127.25091
-66.69223 -51.536736 -110.62997
-79.996552 -103.40791 -127.72403
-91.893913 -14.162935 -142.28751
-39.840012 -33.091328 -72.780411
-90.975548 -42.272018 -142.90323
-70.592339 119.93217 -114.82794
-62.232197 76.198174 -99.574707
-30.745134 -49.283138 -59.850986
-64.175385 -50.032688 -106.68095
-29.355537 -41.98262 -59.365238
-75.067154 -98.100548 -120.86723
-60.287498 79.645981 -98.038712
-1.3527461 -41.935783 -19.231491
3.5035667 -41.717812 -11.55123
-43.158173 -7.3154049 -78.55851
-26.936235 -48.00774 -55.56263
-76.67028 -81.961075 -123.61056
-49.232269 10.783719 -86.480988
-88.583115 -75.72525 -139.57837
-27.119406 -45.392578 -55.624298
-86.982445 -105.88087 -136.85162
-39.028465 -30.394426 -70.857094
-52.820595 -42.913223 -90.889412
-4.7310801 -36.391499 -23.86866
-31.096369 -41.079762 -60.994381
-73.871468 -90.551147 -119.47963
-89.740982 -108.6303 -141.28171
-0.24332999 -35.657513 -17.081589
-33.991219 -45.369827 -64.677856
-33.107704 -42.517109 -63.001385
-32.816792 -47.075008 -63.141712
-88.701225 31.6056 -140.1599
-86.920303 -84.00042 -137.02679
-92.076416 108.83443 -138.80222
-73.986168 -86.940071 -119.37691
-32.10762 -44.226795 -61.880352
-84.654648 -106.78067 -133.46562
-3.4672017 -34.763462 -22.480232
-60.598099 114.44026 -100.33282
-41.387886 -13.021781 -72.452827
-88.714645 -103.27366 -139.17091
-80.834595 -110.242 -127.4366
-80.638275 -68.085503 -128.64996
-4.1966176 -35.013577 -22.741627
-60.581795 -46.117813 -97.015495
-84.494469 -72.78624 -133.10942
-92.23645 -33.266556 -143.0464
-90.204361 -110.38715 -140.3811
-88.979469 3.21381 -139.96884
-92.248192 -84.00103 -144.17142
-69.936661 -55.12569 -113.50027
-91.774925 -87.709976 -143.69243
-93.092377 -66.501289 -144.92174
-78.94062 -79.658028 -125.72874
-3.8106663 -41.477684 -22.250338
-39.831463 -19.604649 -71.296989
-91.91124 -108.59177 -142.76289
-92.288628 -77.893669 -144.00174
-46.870239 -29.668213 -81.666458
-91.423325 -118.0252 -140.8457
-49.743797 -37.167599 -85.766342
-89.583061 -98.93383 -140.50493
-88.175812 -76.803764 -138.71191
-93.394112 -89.13588 -145.56207
-57.076012 86.515083 -94.174362
-89.22831 -96.050171 -140.09557
-91.749817 -98.196869 -143.2661
-59.052383 111.79201 -96.992302
-92.445213 -115.2887 -143.04829
-30.336151 -46.768692 -58.764549
2.1082599 -39.582119 -13.116931
-43.805092 -25.188974 -76.935272
-3.058686 -38.304913 -20.519161
1.8485001 -39.734642 -12.054291
-71.60154 -96.720757 -112.21623
-91.799751 -110.38277 -140.01491
-94.255608 -85.194443 -146.3627
-39.76474 -24.410309 -70.12249
-53.301033 95.307922 -88.784401
-91.027054 -86.150909 -142.01776
-77.220978 -64.27356 -122.66888
-89.823952 -89.196648 -139.78697
-0.29950491 -34.530087 -16.927256
-93.223839 -116.12872 -141.62328
-98.148071 -49.824528 -147.17047
-90.750557 27.061852 -138.79669
-45.955078 -23.803473 -79.340317
-89.531738 -107.22946 -139.55028
-73.328232 -59.502434 -117.26208
-94.708435 -91.149574 -146.72432
-91.804405 -102.7149 -142.20366
-75.312447 -81.844704 -119.87765
-87.715294 -106.90815 -135.81609
-83.775314 -108.98401 -131.8611
-91.463226 -118.96038 -139.18085
-79.796371 -107.11214 -124.39615
-88.504829 -80.855614 -137.83871
-93.595985 -23.51362 -142.75941
-46.625954 -25.99107 -80.280563
-0.12506241 -36.770164 -14.40971
-86.180283 -76.163315 -134.30563
-90.800285 -104.97726 -141.03477
-51.584312 -40.787601 -87.070473
-94.220428 -76.470528 -145.2961
-84.715935 -80.073418 -132.45119
-50.008572 -34.404408 -81.932617
-80.064796 -68.300301 -126.17796
0.35016361 -40.840214 -14.91495
-54.382095 98.354935 -88.537331
-1.6605856 -38.298183 -17.362467
-43.356705 -21.538481 -75.021599
-95.307938 -96.664207 -146.23796
-47.459404 -27.750193 -81.005753
-50.364239 1.9761013 -84.338188
-73.350883 -89.127068 -116.07759
-89.584045 -83.680603 -137.44136
-1.3127565 -34.538536 -17.078638
-43.958405 -8.91008 -76.25946
-83.965195 -110.34988 -129.83443
-43.406567 -20.237984 -73.858971
-91.537262 -120.12865 -140.54341
-56.500599 91.361153 -92.069412
-53.925774 100.95986 -88.7939
-80.936142 -105.56613 -124.36113
-93.631378 -109.89899 -142.65836
-97.896866 -56.05164 -147.36024
-74.648239 -100.28418 -116.15356
-72.05278 -92.660706 -112.95614
-79.476257 -105.48136 -124.56271
-95.151749 -63.766602 -146.43228
-81.659172 -78.793663 -127.70981
-89.624611 -84.851265 -138.39311
-86.21962 113.056 -134.06192
-66.433014 -51.206997 -105.78045
-96.070251 -101.62888 -145.24722
-90.200653 -108.98223 -139.04993
-50.557884 -4.77244 -84.841255
-95.026749 -74.948769 -145.40991
-62.697224 -48.339382 -101.21764
-98.189499 -74.881134 -147.77577
-96.80761 -90.119034 -148.1156
-79.468658 -78.925484 -124.26353
-41.728844 -19.571232 -72.33033
-89.842735 16.8291 -138.56169
-91.911972 -1.11971 -141.40186
-46.970238 -8.0191402 -79.37471
-91.993233 21.768587 -137.58888
-90.716484 9.8408508 -138.79149
-88.319153 -82.277382 -135.5351
-75.606155 -82.499054 -118.62969
-78.318169 -79.666565 -121.23745
-90.334015 -84.944427 -138.6967
-88.324898 -109.53168 -134.82011
-51.905769 41.630646 -85.973099
-50.742306 30.048319 -83.895752
-70.565742 -55.094875 -111.13941
-43.07711 -15.642577 -72.752357
-83.77729 -73.020729 -127.89845
-85.506348 -79.061951 -130.53339
-97.186424 -82.731972 -147.55305
-89.812286 -109.76569 -137.13078
-53.478916 47.978786 -87.373024
-48.071129 -27.763847 -79.810623
-91.212807 -112.52232 -138.7146
-48.168167 -20.688311 -78.632225
-93.211647 -5.63661 -142.31415
-50.453186 20.713053 -82.867928
-97.577827 73.349998 -148.27029
-92.598671 -111.46132 -139.28001
-74.601112 -86.540291 -116.0383
-74.997047 -60.329243 -116.34334
-95.960457 63.087299 -145.91763
-99.217415 -88.479485 -149.14182
-96.91124 67.623398 -147.18726
-96.264816 -31.864502 -144.16309
-79.205429 -106.79467 -121.22104
-56.230995 52.250362 -88.007462
-44.233135 -17.653784 -73.551834
-46.699978 -10.022924 -76.883659
-97.612495 80.744003 -147.94228
-61.44429 63.808342 -94.433334
-78.650383 -65.459061 -122.08155
-94.945869 58.686417 -144.48294
-58.722431 107.92901 -93.460922
-94.380157 -110.95391 -141.94563
-73.798637 119.65402 -112.31593
-76.506256 120.16562 -116.30984
-93.547256 43.160358 -141.49243
-71.248215 118.82969 -109.08618
-97.282784 87.142097 -147.05081
-48.888485 -25.340836 -80.102974
-81.477509 -78.420868 -124.81165
-92.563965 -117.64382 -139.57677
-91.680565 -115.68115 -138.43999
-62.82439 74.785072 -98.704666
-57.572517 -44.963257 -89.672714
-99.503029 -71.398277 -148.60544
-84.044815 -111.01266 -127.65047
-80.42308 119.35787 -121.77916
-80.370682 -108.32171 -122.59996
-50.826488 -8.0474501 -82.866669
-95.098015 -9.4625635 -142.61801
-45.449055 -19.55834 -75.113556
-88.412941 -83.276833 -133.44112
-96.360748 92.536804 -146.30734
-56.63908 94.023499 -90.641342
-68.900879 -94.084656 -106.23589
-70.363297 117.0094 -105.0092
-95.082611 -107.11275 -143.33905
-71.717133 -89.453728 -110.7344
-99.759094 -92.473534 -149.21117
-85.866638 -76.503716 -130.37189
-76.8563 -63.45155 -118.06252
-53.350014 -41.684978 -84.694626
-72.401733 -87.131523 -109.7002
-82.924133 -89.672203 -126.41936
-79.432922 -90.351196 -121.58892
-47.918819 -11.946525 -76.957718
-84.632744 116.957 -128.62663
-92.606277 34.096878 -139.64168
-90.17498 -111.76575 -134.05969
-82.820778 -92.319603 -126.04826
-101.29323 -86.870064 -149.13028
-51.313732 11.721904 -82.33313
-70.086525 -98.520149 -107.72874
-57.593399 104.671 -91.242142
-50.489143 -31.66861 -79.110191
-82.877083 -109.99178 -122.88464
-76.188751 -89.043404 -116.67786
-92.224945 -112.29144 -136.27368
-79.473106 -88.4478 -121.16666
-97.465981 -16.740641 -143.37967
-99.575417 -97.534843 -148.13861
-68.271156 -51.758984 -103.90951
-62.92802 -46.999535 -94.664574
-48.690739 -17.165651 -77.980522
-75.605797 -104.20789 -113.59313
-69.007553 -90.775589 -105.79795
-77.597824 -81.084732 -118.46456
-52.466869 -7.432724 -81.293747
-72.25782 -53.714909 -107.49663
-49.935333 -24.642122 -79.371201
-77.700912 -82.943489 -114.13648
-68.27832 -89.353424 -105.1569
-88.850586 -78.881081 -127.22938
-79.802094 -92.831902 -121.08585
-98.771736 -102.83302 -146.27348
-89.161362 -82.289131 -133.15663
-66.076675 -92.463303 -101.68448
-90.259201 111.96379 -134.79831
-92.738419 -113.11385 -137.94441
-64.029625 -97.801979 -99.321564
-100.20641 -63.516285 -148.76613
-83.7295 -74.151459 -125.42013
-95.899162 -109.16106 -142.22707
-77.416924 -83.235023 -116.06551
-56.332935 -43.978905 -85.512222
-63.540379 -90.090965 -97.376297
-70.016602 -88.374146 -106.25875
-65.03318 -88.753494 -98.305122
-87.343193 -78.576942 -127.85793
-74.962982 -88.052605 -112.56396
-52.02718 -11.192585 -81.330711
-100.69199 -57.830608 -148.55278
-65.124687 -88.490562 -99.428009
-51.018673 -20.950872 -80.292114
-88.054466 -82.09166 -130.77988
-75.532822 -90.718658 -115.65961
-94.540375 -112.01247 -139.9166
-52.073246 3.1674531 -81.295715
-99.350166 -22.533695 -143.69293
-77.106094 -86.80024 -115.3905
-83.81636 -87.759903 -125.5474
-101.86261 -92.153198 -149.49162
-63.494049 -96.432663 -97.785439
-70.176826 -100.27946 -106.22543
-66.324226 -97.763367 -100.92616
-51.672005 -34.725094 -78.837784
-80.699669 -86.065041 -119.65664
-64.337013 -94.273506 -97.627602
-103.7697 -89.821899 -150.80251
-102.98235 -71.346069 -149.9017
-60.947186 82.4916 -93.763016
-101.54431 -27.246044 -144.09299
-58.118324 100.88341 -89.916344
-65.341194 -100.59811 -99.027061
-50.995209 -16.117897 -79.379509
-65.716011 -98.013779 -99.401123
-94.98468 1.17092 -140.49197
-98.69223 -105.74091 -144.83163
-95.965378 -3.3903501 -141.75966
-71.610046 -90.107483 -108.63831
-63.556801 -88.04982 -94.833366
-68.708 -86.792831 -103.05769
-61.541592 77.956764 -94.241608
-67.043442 -100.33739 -100.8904
-87.467491 -112.09143 -125.47155
-62.66378 81.410179 -95.772324
-101.13268 -101.42105 -147.49861
-65.927345 -89.026039 -99.426704
-68.356186 -89.547104 -104.25362
-75.235649 -93.794487 -111.54352
-101.4917 -54.505486 -148.3959
-94.846863 108.84352 -139.40662
-77.470726 -65.211525 -115.48538
-67.281151 -84.273521 -99.080902
-102.56339 -81.868858 -150.02489
-73.105919 -103.20393 -108.23853
-76.758995 -93.109001 -114.79636
-67.837433 -90.52626 -101.86525
-70.599503 -87.711449 -105.7566
-66.107086 -48.424133 -97.713234
-52.447277 -14.4482 -81.241508
-99.768631 104.01679 -140.89023
-100.00272 -34.047211 -144.87433
-94.265648 5.8414302 -138.71162
-63.018345 84.868233 -95.572601
-64.110977 80.425682 -96.918442
-64.353821 -88.416862 -95.918396
-64.43325 -87.214363 -96.006149
-73.392067 -86.098785 -108.74157
-64.6539 -98.523697 -97.812721
-71.565071 -92.074959 -106.11954
-80.943199 -80.550652 -118.99306
-83.970421 -85.658897 -123.19102
-93.852242 11.071496 -137.81319
-86.643906 -80.915733 -127.24729
-66.026314 -98.712906 -99.465706
-93.488625 17.302601 -137.14639
-63.32851 -96.251625 -95.141113
-60.387615 80.993599 -91.55191
-67.273537 -87.399216 -100.63934
-67.208321 -96.776581 -99.746681
-88.947395 -112.39982 -130.55328
-96.396301 -110.55983 -140.25967
-63.089745 -94.40416 -94.736351
-84.665154 -94.733803 -124.81576
-68.153023 -97.309441 -101.75135
-92.855263 111.42847 -136.12215
-65.442726 -101.23253 -97.745277
-62.317276 86.601418 -93.279831
-60.761051 78.115402 -91.823227
-70.512794 -86.627457 -104.3286
-83.340652 -74.428207 -121.90629
-94.895233 -112.15768 -137.37744
-53.111683 -17.43339 -80.822647
-89.539467 -81.254875 -130.10056
-53.196072 -11.541276 -80.780334
-74.286507 -55.705864 -107.59555
-86.659325 117.034 -127.14432
-54.769833 -41.323101 -83.221245
-61.042797 84.489799 -91.847191
-64.304657 -90.073471 -95.575584
-68.843224 -102.40775 -101.01998
-62.55827 -92.45195 -93.073853
-62.766197 96.956772 -90.974182
-65.048248 77.674156 -96.894753
-64.197426 89.715065 -93.683235
-53.817928 -37.946144 -81.314575
-53.40715 -6.2408748 -79.573296
-52.751629 -28.846767 -77.899467
-64.014992 -97.917511 -95.057487
-66.361275 111.42901 -96.851173
-104.96164 -80.265694 -150.64957
-65.999138 -86.86731 -98.025581
-65.829445 -96.988922 -97.158333
-85.061028 -110.8112 -121.94518
-65.010239 108.24888 -94.135506
-66.202141 -91.784698 -97.266808
-89.475883 -85.73288 -130.19942
-63.953636 92.18885 -93.005676
-63.765881 93.940826 -92.113274
-64.955368 -88.265907 -93.835052
-63.201138 75.322922 -93.973564
-64.143814 59.379368 -88.490532
-87.465111 -88.850899 -127.53293
-64.230034 -87.686081 -94.549347
-89.181389 -84.261093 -129.5191
-82.258484 -95.727798 -120.31846
-90.567596 114.022 -131.70885
-54.297619 36.585018 -81.836082
-53.363777 28.460764 -80.241272
-89.537323 -87.182358 -129.74486
-76.46286 -86.40892 -110.75252
-53.952431 -36.986298 -79.194855
-93.858589 -113.34019 -133.78102
-64.029579 -96.345558 -93.137497
-55.454185 43.355778 -83.092186
-103.22819 -53.599483 -148.23804
-53.073856 21.52857 -79.387733
-87.918411 -83.8041 -127.71035
-104.40623 -97.871971 -149.34842
-99.509743 59.690941 -143.30028
-97.939072 49.580402 -141.25003
-70.131355 -93.844246 -101.93819
-56.745911 47.863197 -84.154747
-100.36239 63.873402 -144.60695
-65.438301 -90.821503 -94.824188
-69.310524 -84.977097 -98.244293
-104.46653 -64.99765 -149.36105
-60.402203 -44.870804 -86.944519
-77.902275 -65.337326 -114.08183
-85.733078 -78.890434 -124.5856
-105.2886 -89.773972 -150.93494
-79.427971 -85.52356 -115.49139
-68.853218 -50.364845 -100.42308
-95.436508 112.46223 -137.1259
-104.46294 74.342888 -144.68306
-101.31921 68.600998 -145.58662
-54.265808 -24.745689 -78.914154
-75.43013 118.61671 -109.56753
-101.36079 81.557533 -145.74957
-77.882301 -95.284554 -112.48389
-60.753708 81.032898 -89.543068
-89.317604 -81.173729 -128.03917
-62.559475 75.963837 -91.118057
-96.147331 32.060772 -137.66562
-53.740051 7.9555011 -79.535255
-61.02647 78.2873 -89.788651
-65.668983 74.819641 -96.047661
-65.915741 -85.172684 -95.091957
-84.954292 -84.96701 -122.68106
-61.284458 -45.518818 -89.872795
-97.135071 111.36997 -138.57486
-78.064102 -106.78702 -111.13698
-87.735786 -80.546837 -125.38886
-101.19957 94.192001 -142.97711
-94.881348 113.42551 -134.65833
-61.272636 85.050903 -89.801399
-64.734062 68.578125 -94.350914
-53.316059 -32.190895 -77.076225
-79.887405 119.18055 -114.64141
-106.26495 -86.543121 -151.53874
-65.872704 -86.699486 -94.960403
-64.820465 -87.513306 -93.106102
-89.48571 -83.205711 -127.43634
-66.491165 -47.102936 -94.726967
-94.22229 112.64407 -133.48076
-65.077736 74.304497 -94.221336
-106.20975 -93.370567 -150.90115
-54.723457 -7.4049006 -78.36058
-85.841011 -78.050407 -122.33459
-64.68605 -87.824707 -92.840927
-63.574974 -92.575333 -91.327904
-102.91397 -104.36486 -145.82379
-72.071175 -85.880989 -102.49342
-98.178139 -112.18256 -136.96388
-63.215221 103.874 -91.939995
-88.956062 -89.864502 -127.36684
-64.261711 64.865952 -92.619576
-100.43711 -108.09396 -142.64311
-84.235237 118.43542 -119.50977
-87.867149 -78.548592 -124.31128
-83.800644 -73.742828 -117.78664
-98.589615 28.627728 -135.21764
-62.683773 87.179901 -90.936783
-77.088318 -82.971046 -110.24142
-65.877632 -88.16375 -92.440781
-79.833939 -82.052315 -115.07112
-99.998642 -7.7862191 -142.15193
-65.854599 -100.17409 -94.233131
-68.819298 -83.213837 -98.786392
-94.683281 118.67863 -133.73769
-67.903183 -83.424889 -97.051888
-98.032593 1.6392919 -139.58096
-95.388046 119.67429 -134.65318
-73.477371 115.90343 -104.64752
-104.65108 -49.175285 -148.35448
-102.62765 -33.608315 -145.49232
-74.46534 -85.609955 -104.6768
-101.12167 -14.709939 -143.25551
-63.649006 70.244644 -91.356812
-96.894478 7.3010182 -137.40057
-106.00904 -62.387138 -149.84178
-97.963737 114.4889 -137.38582
-66.715752 -92.776253 -94.551918
-56.462341 -17.333094 -80.378868
-88.356934 117.139 -125.58092
-70.894913 -85.761299 -102.00977
-101.63322 -21.106609 -143.59946
-97.592384 23.468853 -134.73279
-89.522011 -79.104485 -125.411
-83.975105 -84.719551 -117.41222
-65.817978 89.558929 -93.379242
-56.278812 -38.971745 -81.005127
-54.795959 -2.4100661 -78.049583
-97.769012 17.797186 -134.87665
-107.40486 -88.101173 -151.59543
-98.336151 13.383365 -135.20407
-67.015045 -90.360992 -91.776299
-67.774452 -102.26262 -96.857819
-105.35046 -99.836601 -148.53021
-107.19596 -74.587326 -150.72943
-81.242027 -108.05505 -113.86691
-58.939434 -43.5905 -84.392876
-76.162796 -58.371555 -107.70213
-92.867172 114.7602 -128.49883
-57.576828 -41.532299 -82.475639
-64.152481 71.464844 -90.221329
-74.333206 -95.794075 -105.29786
-80.22683 -65.937157 -111.43412
-77.576172 117.9573 -109.71068
-63.470139 66.464188 -89.453903
-67.602303 -94.078903 -95.874794
-88.014839 -79.224846 -123.0299
-94.840034 118.32864 -132.24272
-98.810257 113.39661 -137.74535
-97.824051 -113.25481 -134.4994
-89.280792 -77.930603 -125.16994
-83.38813 -71.27681 -115.18361
-67.325348 90.019173 -92.925163
-95.186378 112.77895 -130.95708
-63.588902 78.172539 -87.677704
-64.348679 75.158333 -90.391754
-63.538555 80.735168 -87.473396
-78.227562 -85.993668 -110.18913
-62.894993 85.072899 -88.558403
-85.152214 157.61775 -118.2739
-71.562019 -49.211246 -97.692047
-86.233963 -78.440796 -119.8481
-64.454872 87.006775 -89.352737
-86.756798 -80.462776 -119.42419
-57.629051 -22.161852 -79.30262
-70.357521 -84.53756 -97.193649
-57.228394 -24.744108 -78.654221
-84.231827 157.37155 -116.88464
-90.267326 116.34162 -124.22755
-68.551895 -85.299889 -94.686958
-77.252617 115.67438 -106.34475
-72.85994 112.42333 -100.30797
-67.150352 92.750168 -92.499748
-95.750862 115.38596 -132.28078
-68.981979 107.83725 -94.942635
-80.119713 117.08681 -110.34529
-67.157143 103.21179 -92.450371
-59.044846 -39.542049 -81.243332
-82.920845 117.36426 -114.14748
-68.91349 -88.396309 -90.709259
-86.589661 -109.23392 -115.05555
-93.116165 134.08182 -128.58105
-66.828812 94.986053 -91.532288
-69.432915 -85.841301 -91.713013
-66.731155 97.430855 -91.838676
-55.872608 -29.359701 -76.861534
-67.668976 -86.809769 -92.728355
-86.554161 117.18337 -119.09299
-55.322239 -32.439232 -76.221001
-65.194809 66.223778 -89.802704
-89.601044 -111.23087 -119.63869
-62.598137 -44.066883 -86.157059
-60.357574 -42.140575 -83.028976
-55.689716 -34.996342 -76.664062
-73.039536 -85.144814 -100.39937
-94.683495 -113.79333 -130.28368
-57.513794 -38.147137 -79.17495
-64.647255 -45.03442 -88.860748
-67.466011 -91.079056 -92.752754
-74.102264 -104.43464 -100.74697
-96.762741 -113.76938 -131.89049
-103.16319 -107.84866 -141.87442
-73.096313 -104.50742 -101.87369
-106.19923 -102.56761 -146.14305
-71.075821 -102.09213 -94.015831
-70.54483 -100.80043 -91.980576
-68.326538 -98.947197 -91.1334
-108.34479 -96.017693 -149.16916
-76.647026 -96.399391 -105.48796
-81.556511 -95.81234 -112.45332
-85.301727 -95.897697 -117.40778
-69.469887 -94.879997 -95.582184
-88.219498 -95.166397 -121.42375
-68.23172 -93.389549 -93.244278
-109.37358 -89.785927 -150.54549
-91.806168 -90.063599 -126.36038
-69.230995 -87.707962 -89.905373
-93.476059 -87.819504 -128.6588
-76.369003 -85.632484 -103.16225
-94.113808 -85.397003 -129.53658
-75.432266 -85.986031 -100.36213
-109.37896 -82.853996 -150.64684
-73.580086 -84.81926 -98.242683
-87.784538 -84.316101 -120.82508
-93.410233 -83.337196 -128.56819
-91.457016 -82.605904 -125.87982
-83.827553 -81.627769 -115.12158
-91.072914 -77.771835 -123.69309
-108.387 -63.503941 -149.15541
-76.663834 -56.239418 -104.84012
-74.710983 -53.045757 -102.73138
-107.2757 -49.79348 -147.64717
-104.23905 -26.958431 -143.50351
-103.66993 -16.67462 -142.58209
-58.33633 -17.32168 -79.378319
-56.034908 -13.861976 -79.398178
-57.328651 -7.7557259 -76.473785
-102.46493 -6.955986 -141.0504
-100.78084 1.44841 -138.5788
-56.201427 7.3819895 -77.475243
-99.335991 7.9479365 -135.90373
-55.898956 21.485456 -76.858276
-56.414425 29.652914 -77.827248
-58.190849 41.863991 -80.369064
-101.4006 51.248493 -139.51125
-102.58703 59.163094 -141.45744
-66.579506 64.918663 -90.452507
-103.83283 64.240402 -142.91368
-64.827278 66.600517 -87.972755
-104.59695 69.090797 -143.96539
-104.52065 81.311493 -143.86673
-64.268745 85.098793 -87.819138
-98.665138 107.72442 -139.86665
-102.13809 108.51295 -137.145
-98.46048 113.57172 -131.93666
-98.0886 120.1639 -134.19115
-84.859322 157.20107 -116.29701
-84.181816 157.86409 -117.53043
-82.182602 -107.26605 -109.72147
-78.481743 -82.858978 -108.1172
-95.727516 118.75367 -131.06035
-85.884842 158.13417 -117.54768
-68.347565 -87.369278 -90.614494
-81.527023 118.62752 -107.84679
-90.177574 -79.349586 -122.10246
-66.044243 -94.666481 -90.899925
-66.26091 -92.426445 -89.295036
-97.296234 118.40324 -131.12019
-100.19067 114.9691 -135.63852
-86.060547 157.36264 -116.67467
-92.121956 -79.355576 -124.01405
-66.068718 74.548248 -89.599564
-71.703781 -84.985573 -95.810402
-70.247856 -85.783203 -93.520775
-66.505974 87.177383 -87.812149
-87.787819 -78.344803 -118.99084
-70.091713 -91.46656 -91.845505
-69.641151 -88.214378 -90.366203
-75.229439 -85.768188 -99.044739
-59.607708 -13.681365 -76.739532
-103.35051 104.23901 -138.15645
-88.445961 118.65286 -116.88032
-84.867043 -70.984764 -114.27414
-69.712646 -47.539692 -95.421379
-98.543564 119.77029 -132.24402
-78.248924 -52.851177 -101.22488
-100.40239 -112.29785 -134.75305
-98.226791 118.77654 -131.65923
-72.872772 -83.483856 -96.361404
-71.685806 -83.170799 -94.877319
-92.443634 -111.97887 -121.57659
-67.107262 69.783951 -88.665588
-84.020172 119.05573 -111.32895
-70.610008 -94.347404 -94.417152
-68.598915 89.278915 -91.204163
-70.374039 -86.755775 -91.882477
-91.786644 -78.813995 -120.75189
-69.197678 74.460968 -90.829102
-104.63834 -108.15245 -139.46596
-68.430923 64.943871 -89.781395
-78.020363 -95.914116 -104.55412
-81.723427 -64.415092 -109.1908
-66.772186 66.193573 -88.680115
-58.014534 -29.216892 -73.753265
-106.6534 -104.82662 -142.56479
-79.391296 117.81234 -104.56625
-58.158119 -37.4039 -76.696846
-57.599918 -32.183594 -73.880424
-63.682587 -44.790699 -84.54744
-108.64948 -100.09735 -145.93033
-110.79931 -84.234093 -149.06729
-57.854702 -34.806004 -74.385139
-61.628948 -41.39452 -78.346558
-94.697258 114.894 -127.07811
-63.113594 -44.090225 -80.956657
-59.660851 -39.048939 -78.679115
-81.256721 -82.933479 -107.56542
-101.39558 112.3595 -134.21385
-70.013229 63.737949 -88.078957
-110.58841 -93.825722 -147.5699
-97.958885 -113.1718 -129.62317
-89.845734 -77.847748 -119.27288
-110.81804 -89.679588 -148.87129
-90.614059 -84.820335 -119.30628
-71.547493 111.41927 -93.456108
-101.25227 17.620173 -131.60213
-86.100578 -85.153076 -113.14374
-67.167313 96.355492 -88.608772
-80.827316 -86.034172 -107.68398
-109.52079 -58.654884 -146.68719
-58.445591 -25.493959 -75.039772
-67.296745 99.225029 -86.739456
-99.046387 112.68886 -130.9884
-105.41309 -26.002504 -141.13615
-75.665665 114.97005 -100.06158
-105.18311 -17.128159 -140.61398
-92.130722 117.139 -122.8391
-60.011265 -17.136913 -76.663132
-94.272575 -83.641434 -123.46084
-69.049225 -96.296318 -89.717186
-84.641884 -82.049545 -111.70299
-72.082245 -48.289597 -93.118729
-104.50263 -9.1586876 -139.42397
-106.80544 -34.617771 -142.78072
-71.339539 -90.125595 -90.964836
-108.89365 -50.409828 -145.58479
-102.69832 -0.40366197 -137.34636
-92.090126 -80.495995 -122.10695
-69.347275 108.20565 -90.899734
-68.700493 92.129341 -90.036011
-100.31094 113.89866 -132.9933
-70.276344 71.211143 -91.34314
-58.986439 7.7216778 -75.708771
-68.586044 -92.485138 -88.191414
-75.01046 -102.50484 -97.064301
-107.10599 93.636276 -138.612
-93.342789 -78.912643 -123.86324
-109.9963 -70.328247 -148.14632
-71.788681 -92.834999 -93.542297
-78.078201 -105.48803 -104.4727
-70.010963 -46.826553 -88.68885
-94.796982 -81.205177 -125.02843
-95.722939 -87.07885 -125.35665
-103.32609 -110.80544 -134.64215
-109.29749 -57.617046 -144.94426
-93.644089 -89.864502 -123.96078
-67.9991 103.57685 -87.073784
-79.036911 -87.715652 -100.1992
-110.80686 -78.736343 -146.22559
-82.929123 -86.989983 -106.68258
-71.053345 75.25428 -92.212379
-67.365082 75.979111 -87.629822
-109.82533 -97.434761 -145.93346
-69.645729 89.250694 -89.321205
-79.344063 -94.633492 -103.78624
-97.880211 112.88203 -129.48872
-65.986938 -45.198929 -84.181374
-95.564461 -84.19677 -124.72736
-70.229813 -87.551414 -90.349113
-111.30342 -86.461296 -147.71002
-102.78188 40.648708 -135.24307
-66.471893 85.050903 -86.023911
-96.209435 -85.732353 -125.28654
-72.891548 -88.406616 -92.376503
-73.249741 -86.942497 -93.445557
-88.217155 -80.462578 -114.78654
-73.212708 -90.659325 -93.318542
-103.30502 108.70273 -133.74303
-73.052467 -83.809639 -94.668274
-107.89462 -42.985703 -141.80165
-66.535843 78.2873 -85.785851
-73.367622 -101.19937 -92.795715
-111.12689 -87.500351 -146.54907
-106.24265 -29.20207 -139.68011
-66.386574 81.032898 -85.450562
-75.965149 -51.044895 -96.410675
-80.364754 -55.74931 -103.91746
-58.786743 -4.55234 -75.435257
-84.527763 -95.272598 -110.33493
-108.30975 82.28447 -140.46721
-71.160767 -98.247787 -90.462761
-83.432854 -106.69026 -109.31844
-73.270721 -96.909988 -93.813126
-107.15173 68.600998 -141.34908
-84.172211 -65.347412 -109.33228
-63.385925 52.291912 -82.589264
-59.169693 21.232399 -74.974632
-107.606 74.278099 -141.91641
-72.794205 56.716476 -80.609619
-62.792759 48.025654 -79.893944
