# .PCD v0.7 - Point Cloud Data file format
VERSION 0.7
FIELDS x y z
SIZE 4 4 4
TYPE F F F
COUNT 1 1 1
WIDTH 1527
HEIGHT 1
VIEWPOINT 0 0 0 1 0 0 0
POINTS 1527
DATA ascii
145.34308 -62.492378 -7.2574296
85.098679 -9.6399164 -0.12016264
167.74493 -68.398834 -10.493
165.38878 -109.37589 -11.02703
166.13438 36.326599 -9.7311888
164.48199 -98.816048 -10.142206
148.08299 -104.18633 -8.4433947
149.95157 -109.18924 -8.619894
129.07501 -51.536736 -5.1464643
150.46405 -103.40791 -8.570013
168.95772 -14.162935 -11.979744
82.971031 -33.091328 0.15015331
169.05486 -42.272018 -10.878345
134.63261 119.93217 -6.5417709
117.23857 76.198174 -6.5640206
67.259399 -49.283138 1.8912584
124.40196 -50.032688 -4.8433876
66.164291 -41.98262 2.8749602
142.08064 -98.100548 -7.5536308
114.9557 79.645981 -5.5998387
17.504375 -41.935783 8.0794191
8.4345655 -41.717812 8.635046
89.632957 -7.3154049 0.026049355
61.666534 -48.00774 3.1630909
145.25694 -81.961075 -7.6368566
99.501694 10.783719 -1.4800457
164.98869 -75.72525 -10.3836
61.808819 -45.392578 3.0322874
161.82811 -105.88087 -10.294539
80.894653 -30.394426 -0.065245479
105.09351 -42.913223 -2.5007422
23.195482 -36.391499 7.3529353
68.430573 -41.079762 2.1343043
140.28865 -90.551147 -7.1743274
167.03915 -108.6303 -10.577655
15.085936 -35.657513 8.0158844
73.053032 -45.369827 1.3720553
71.158295 -42.517109 1.3386375
71.141113 -47.075008 1.6611712
165.55519 31.6056 -10.206947
161.95168 -84.00042 -10.155699
165.99146 108.83443 -13.818724
140.25389 -86.940071 -7.3243251
69.69413 -44.226795 1.6749562
157.7395 -106.78067 -9.8859005
21.369915 -34.763462 7.7915998
117.11568 114.44026 -4.7668262
83.429665 -13.021781 -1.3640738
164.69501 -103.27366 -10.695157
150.61591 -110.242 -9.4428635
151.58461 -68.085503 -8.6862793
21.950377 -35.013577 7.278336
114.20083 -46.117813 -6.3506718
157.35019 -72.78624 -9.9171371
169.78777 -33.266556 -11.914307
166.47318 -110.38715 -11.417591
165.52182 3.21381 -10.542814
170.77928 -84.00103 -11.382612
133.15329 -55.12569 -6.6068034
170.13155 -87.709976 -11.19864
171.84348 -66.501289 -11.76091
148.20686 -79.658028 -8.6059322
21.333923 -41.477684 7.3798676
81.666985 -19.604649 -0.55699784
169.38266 -108.59177 -11.765902
170.65007 -77.893669 -11.499796
94.144775 -29.668213 -1.7295951
167.46754 -118.0252 -12.261956
99.121872 -37.167599 -2.2725825
166.28238 -98.93383 -10.813489
164.0332 -76.803764 -10.444095
172.54997 -89.13588 -11.71684
110.0222 86.515083 -4.6472559
165.75275 -96.050171 -10.699829
169.74585 -98.196869 -11.382026
113.4437 111.79201 -5.0216117
169.89 -115.2887 -12.096335
66.110321 -46.768692 1.7262588
10.478793 -39.582119 8.1666107
88.522156 -25.188974 -1.3228539
19.454613 -38.304913 7.2048326
9.6727343 -39.734642 7.4270506
132.83014 -96.720757 -8.6843348
166.92087 -110.38277 -12.992052
173.6666 -85.194443 -12.086065
80.605614 -24.410309 -1.0643512
103.48033 95.307922 -3.9358499
168.30373 -86.150909 -11.350057
144.69705 -64.27356 -8.5730915
165.76927 -89.196648 -11.370462
14.977756 -34.530087 7.8923078
169.01634 -116.12872 -13.465162
176.24966 -49.824528 -15.107915
165.34789 27.061852 -12.659515
91.665474 -23.803473 -2.0482645
165.42108 -107.22946 -11.228419
138.08369 -59.502434 -7.7665973
174.20163 -91.149574 -12.308673
168.84113 -102.7149 -11.941692
141.33163 -81.844704 -8.2453194
161.27371 -106.90815 -11.435617
155.90982 -108.98401 -9.88832
166.02785 -118.96038 -13.098969
147.45137 -107.11214 -9.9978065
163.42651 -80.855614 -11.153084
170.19124 -23.51362 -13.243937
92.812614 -25.99107 -2.1831889
12.687575 -36.770164 6.8323364
159.21059 -76.163315 -10.818147
167.33308 -104.97726 -11.624891
101.15137 -40.787601 -3.2571702
172.71498 -76.470528 -12.569077
156.88007 -80.073418 -10.428315
95.889915 -34.404408 -4.3515158
149.14209 -68.300301 -9.3746376
12.901379 -40.840214 7.4921813
103.78463 98.354935 -5.0022192
16.014839 -38.298183 6.9092479
86.629181 -21.538481 -1.8518466
174.06425 -96.664207 -13.06832
93.849625 -27.750193 -2.5641823
98.169273 1.9761013 -3.5043001
137.05663 -89.127068 -8.3570795
163.59822 -83.680603 -12.290235
15.598551 -34.538536 7.0773177
88.003799 -8.91008 -1.7827762
154.22531 -110.34988 -11.031068
85.634384 -20.237984 -2.4556432
167.25754 -120.12865 -12.507425
107.90041 91.361153 -5.1570854
103.78963 100.95986 -4.4787397
147.96977 -105.56613 -11.013464
170.11974 -109.89899 -13.323633
176.29494 -56.05164 -14.796363
137.7482 -100.28418 -9.4573612
133.69591 -92.660706 -8.7233095
147.44312 -105.48136 -9.6370497
174.15929 -63.766602 -12.837844
151.25256 -78.793663 -10.033826
164.4518 -84.851265 -11.867268
159.01598 113.056 -10.970024
124.70046 -51.206997 -7.2555847
173.56331 -101.62888 -14.213636
165.30487 -108.98223 -12.055644
98.703407 -4.77244 -3.4316347
173.20316 -74.948769 -13.220839
118.90231 -48.339382 -6.1800399
176.80005 -74.881134 -14.852612
176.43211 -90.119034 -13.477939
147.17728 -78.925484 -9.7745247
83.486572 -19.571232 -1.7218745
164.70461 16.8291 -11.977201
168.19032 -1.11971 -12.422225
92.184669 -8.0191402 -2.9212854
164.88814 21.768587 -14.330352
165.3269 9.8408508 -12.632171
161.31839 -82.277382 -12.100148
140.37953 -82.499054 -9.1039019
143.97125 -79.666565 -10.224166
165.05959 -84.944427 -12.342677
160.69461 -109.53168 -12.449626
100.3446 41.630646 -4.0675268
97.963699 30.048319 -4.0487475
131.38751 -55.094875 -8.2954283
84.505936 -15.642577 -2.700052
152.43828 -73.020729 -11.799074
155.58028 -79.061951 -12.044863
176.12164 -82.731972 -14.080903
163.43602 -109.76569 -12.639864
102.32923 47.978786 -4.7716656
93.097023 -27.763847 -3.676003
165.49863 -112.52232 -13.104142
92.111137 -20.688311 -4.3287315
169.61589 -5.63661 -13.121643
96.923729 20.713053 -4.290544
176.93872 73.349998 -14.078361
166.66176 -111.46132 -14.046193
137.6245 -86.540291 -9.471591
138.08255 -60.329243 -9.6715984
174.0979 63.087299 -13.794453
178.49232 -88.479485 -15.095284
175.66852 67.623398 -14.015989
172.707 -31.864502 -14.906425
144.38431 -106.79467 -11.009582
104.21101 52.250362 -6.8776908
85.763435 -17.653784 -3.3279364
89.871552 -10.022924 -3.8845248
176.66798 80.744003 -14.266763
112.35358 63.808342 -8.3504467
144.87099 -65.459061 -10.108639
172.35188 58.686417 -13.596534
110.19018 107.92901 -6.4337273
169.8559 -110.95391 -14.323153
133.97597 119.65402 -10.561641
138.78026 120.16562 -11.010269
169.0575 43.160358 -13.811606
129.91704 118.82969 -9.8826275
175.72795 87.142097 -14.407304
93.746979 -25.340836 -4.2514148
148.62537 -78.420868 -11.270834
166.90508 -117.64382 -13.872822
165.48334 -115.68115 -13.646337
116.76144 74.785072 -7.5021124
106.31657 -44.963257 -7.2510343
178.15988 -71.398277 -15.603974
152.34985 -111.01266 -12.15297
145.46001 119.35787 -11.807743
146.15404 -108.32171 -11.3664
97.102463 -8.0474501 -4.6182795
170.79094 -9.4625635 -14.628292
87.717758 -19.55834 -3.6410902
159.52859 -83.276833 -13.191125
174.63225 92.536804 -13.957489
106.7157 94.023499 -5.9664178
126.28847 -94.084656 -9.1987886
125.91804 117.0094 -11.071273
171.41536 -107.11275 -14.267431
131.58728 -89.453728 -9.4995146
178.81406 -92.473534 -15.536552
155.61232 -76.503716 -12.438388
140.48477 -63.45155 -10.472652
99.920029 -41.684978 -5.9490385
131.01082 -87.131523 -10.597663
150.73114 -89.672203 -11.76399
144.81628 -90.351196 -11.031708
90.523628 -11.946525 -4.9169273
153.48851 116.957 -12.197902
166.98235 34.096878 -13.87863
160.91953 -111.76575 -14.437205
150.35614 -92.319603 -11.852205
179.48224 -86.870064 -16.919897
96.869652 11.721904 -5.3022881
128.16786 -98.520149 -9.5185852
107.70193 104.671 -6.513258
93.648117 -31.66861 -6.1323586
147.61096 -109.99178 -13.425634
138.9498 -89.043404 -10.554742
163.84724 -112.29144 -15.167009
144.46561 -88.4478 -11.270348
172.59915 -16.740641 -16.336428
177.78568 -97.534843 -15.892299
123.94647 -51.758984 -9.7676954
113.271 -46.999535 -9.5392504
91.791794 -17.165651 -5.1006265
135.96579 -104.20789 -11.529974
125.95609 -90.775589 -9.5032396
141.19432 -81.084732 -10.928772
96.514359 -7.432724 -6.8135166
129.01048 -53.714909 -11.533125
93.610046 -24.642122 -5.5213089
137.45126 -82.943489 -13.104175
125.04302 -89.353424 -9.1730423
154.29605 -78.881081 -16.567158
144.55328 -92.831902 -11.597569
175.76407 -102.83302 -16.086565
159.63986 -82.289131 -13.984014
120.93947 -92.463303 -8.9165726
161.60736 111.96379 -14.155177
165.55869 -113.11385 -14.812084
117.88265 -97.801979 -8.2610712
178.63956 -63.516285 -16.142933
150.24348 -74.151459 -12.951128
170.8343 -109.16106 -15.518677
139.00487 -83.235023 -11.925994
102.07353 -43.978905 -8.1691103
115.94231 -90.090965 -8.7694836
126.84601 -88.374146 -10.165488
117.47541 -88.753494 -9.6301718
154.12067 -78.576942 -14.943413
134.75424 -88.052605 -11.462472
96.33493 -11.192585 -6.410408
178.68652 -57.830608 -16.671242
118.50349 -88.490562 -9.1693983
94.93895 -20.950872 -6.0269928
157.02383 -82.09166 -14.15905
137.7415 -90.718658 -10.47049
168.15501 -112.01247 -15.441046
96.326454 3.1674531 -6.4676337
173.78139 -22.533695 -17.836634
138.26361 -86.80024 -11.978803
150.39687 -87.759903 -12.965931
180.0732 -92.153198 -17.244768
116.27853 -96.432663 -8.5317764
126.894 -100.27946 -10.321944
120.3942 -97.763367 -9.498827
93.979256 -34.725094 -7.300139
143.73328 -86.065041 -13.072651
116.54631 -94.273506 -9.3465109
182.14067 -89.821899 -18.284443
180.97198 -71.346069 -18.02844
111.52669 82.4916 -8.2377586
175.189 -27.246044 -19.56665
106.79301 100.88341 -7.6119604
118.25643 -100.59811 -9.5522852
94.127922 -16.117897 -6.4460831
118.7648 -98.013779 -9.7005377
168.87328 1.17092 -15.553202
174.46227 -105.74091 -16.711512
170.4566 -3.3903501 -15.801886
129.69888 -90.107483 -10.415467
113.72183 -88.04982 -10.008942
123.41048 -86.792831 -10.560871
112.23244 77.956764 -8.5280809
120.70935 -100.33739 -10.146308
152.08934 -112.09143 -16.201982
114.11443 81.410179 -8.7740345
177.97505 -101.42105 -17.56526
118.88902 -89.026039 -9.8734035
124.28899 -89.547104 -9.6764345
133.99138 -93.794487 -12.193014
178.93433 -54.505486 -17.447599
167.85577 108.84352 -15.955304
138.52242 -65.211525 -12.252626
119.2382 -84.273521 -11.226344
180.8781 -81.868858 -17.601963
130.06918 -103.20393 -11.91891
137.57574 -93.109001 -11.960864
121.94613 -90.52626 -10.372448
126.68678 -87.711449 -10.9182
117.47409 -48.424133 -10.856383
96.459145 -14.4482 -6.8215141
171.52695 104.01679 -19.553553
175.13101 -34.047211 -17.839325
166.96674 5.8414302 -15.780802
114.11023 84.868233 -9.180954
115.81598 80.425682 -9.4900732
115.05662 -88.416862 -10.18466
115.17178 -87.214363 -10.211982
130.64786 -86.098785 -11.92732
116.86119 -98.523697 -9.535017
127.46999 -92.074959 -11.58949
143.2691 -80.550652 -13.605736
148.40617 -85.658897 -14.236132
165.98027 11.071496 -15.851358
153.24867 -80.915733 -14.624802
118.97088 -98.712906 -9.9413404
165.22079 17.302601 -15.853945
113.88154 -96.251625 -9.6606274
109.3195 80.993599 -8.8126135
120.6002 -87.399216 -10.468895
119.78654 -96.776581 -10.841787
157.25545 -112.39982 -15.050693
169.34976 -110.55983 -16.902128
113.41181 -94.40416 -9.6463909
150.16463 -94.733803 -14.062209
121.99835 -97.309441 -10.703876
164.01811 111.42847 -15.79236
117.18211 -101.23253 -10.258764
111.76331 86.601418 -9.6711578
109.73717 78.115402 -9.0091505
125.39365 -86.627457 -11.530158
146.97696 -74.428207 -14.303187
166.10089 -112.15768 -16.975264
96.41217 -17.43339 -7.605526
157.14395 -81.254875 -15.787629
96.415749 -11.541276 -7.6998596
130.07449 -55.705864 -13.263226
153.16586 117.034 -14.687919
99.312897 -41.323101 -7.9030423
109.8939 84.489799 -9.2445011
114.73253 -90.073471 -10.30672
121.68996 -102.40775 -11.661042
111.69891 -92.45195 -9.9815693
109.95913 96.956772 -11.175303
116.24675 77.674156 -10.322821
113.02259 89.715065 -11.124403
97.183487 -37.946144 -7.9874249
95.459702 -6.2408748 -8.4663229
93.677116 -28.846767 -8.6982594
114.13897 -97.917511 -10.302481
116.84112 111.42901 -11.494428
182.58087 -80.265694 -19.402624
117.6958 -86.86731 -10.611314
116.85407 -96.988922 -10.880415
147.83983 -110.8112 -15.792026
113.81049 108.24888 -11.618795
117.12868 -91.784698 -11.154752
157.19995 -85.73288 -15.684289
112.31139 92.18885 -11.237185
111.43893 93.940826 -11.502571
113.52077 -88.265907 -11.715455
112.79704 75.322922 -10.111482
108.44636 59.379368 -13.579025
153.89459 -88.850899 -15.206823
113.79728 -87.686081 -10.735721
156.46191 -84.261093 -15.753963
145.06419 -95.727798 -14.11982
159.04861 114.022 -15.913789
97.871582 36.585018 -8.1565447
96.024155 28.460764 -8.1065197
156.83122 -87.182358 -15.957109
133.88943 -86.40892 -13.649497
95.390762 -36.986298 -9.1264715
162.44992 -113.34019 -17.799431
112.46349 -96.345558 -11.240231
99.529495 43.355778 -8.5649176
179.63254 -53.599483 -19.045355
95.136528 21.52857 -8.2636528
154.26845 -83.8041 -15.518579
181.1731 -97.871971 -19.542744
173.51418 59.690941 -18.165638
170.96085 49.580402 -17.776962
123.11516 -93.844246 -12.34749
101.08292 47.863197 -9.1849747
175.06998 63.873402 -18.283321
114.62021 -90.821503 -11.662136
119.48273 -84.977097 -13.407738
181.21323 -64.99765 -19.5895
105.28905 -44.870804 -11.045021
137.50038 -65.337326 -13.306957
150.47742 -78.890434 -15.108914
182.98846 -89.773972 -19.551657
139.4706 -85.52356 -13.964876
121.17171 -50.364845 -11.957359
166.14124 112.46223 -17.570761
177.11214 74.342888 -21.839989
176.38943 68.600998 -18.649824
95.295753 -24.745689 -9.536314
132.3535 118.61671 -13.31538
176.55226 81.557533 -18.607761
136.09047 -95.284554 -14.059269
107.73551 81.032898 -10.101189
155.23067 -81.173729 -16.58629
109.98562 75.963837 -10.924837
166.95663 32.060772 -17.933645
95.586739 7.9555011 -8.7763767
108.08212 78.2873 -10.221902
115.80348 74.819641 -11.274868
115.08486 -85.172684 -11.951515
148.43327 -84.96701 -15.34398
108.28014 -45.518818 -10.40744
168.22925 111.36997 -18.361185
134.99774 -106.78702 -14.867464
152.14613 -80.546837 -16.476931
174.04506 94.192001 -19.80213
163.71143 113.42551 -18.273035
108.21188 85.050903 -10.431477
113.86621 68.578125 -11.273004
93.227615 -32.190895 -9.5894747
138.94708 119.18055 -14.776965
183.98795 -86.543121 -20.11636
114.94885 -86.699486 -11.977175
112.81699 -87.513306 -11.948414
154.78339 -83.205711 -17.024017
115.04224 -47.102936 -12.631604
162.36201 112.64407 -18.262791
113.91823 74.304497 -11.636593
183.40262 -93.370567 -20.375149
95.031128 -7.4049006 -10.204042
148.55684 -78.050407 -16.28793
112.51987 -87.824707 -11.958369
110.65873 -92.575333 -11.713634
177.36554 -104.36486 -19.933079
124.53622 -85.880989 -13.779888
167.32004 -112.18256 -20.051327
111.0218 103.874 -11.103503
154.46732 -89.864502 -16.593369
112.12147 64.865952 -11.693156
173.38506 -108.09396 -19.294886
145.30785 118.43542 -16.24164
151.26512 -78.548592 -17.11117
143.58849 -73.742828 -16.690937
165.98802 28.627728 -21.253162
109.88665 87.179901 -11.12109
133.74287 -82.971046 -14.443812
112.74326 -88.16375 -13.195333
139.29788 -82.052315 -14.523093
172.74339 -7.7862191 -19.147282
114.30282 -100.17409 -12.311682
119.72112 -83.213837 -12.716121
162.80925 118.67863 -18.542986
117.75983 -83.424889 -12.748923
169.54329 1.6392919 -18.662996
163.95102 119.67429 -18.719534
127.10132 115.90343 -13.974397
180.42006 -49.175285 -20.236143
176.93713 -33.608315 -19.841854
127.60293 -85.609955 -14.826056
174.2515 -14.709939 -19.599751
110.71973 70.244644 -11.764582
167.0843 7.3010182 -18.716068
182.37759 -62.387138 -20.709625
167.5865 114.4889 -19.660168
114.99703 -92.776253 -12.91274
97.637474 -17.333094 -10.755523
152.61368 117.139 -16.928719
123.54572 -85.761299 -12.982122
174.79933 -21.106609 -19.88232
165.08273 23.468853 -20.61286
153.02605 -79.104485 -18.031544
143.34442 -84.719551 -17.024197
113.5369 89.558929 -12.690957
98.097855 -38.971745 -10.292993
94.793526 -2.4100661 -10.417402
165.29388 17.797186 -20.698341
184.58678 -88.101173 -21.087961
165.85403 13.383365 -21.037586
112.70892 -90.360992 -14.512176
117.52774 -102.26262 -12.729609
180.91098 -99.836601 -20.764355
183.72725 -74.587326 -21.322105
138.92097 -108.05505 -16.337147
102.34833 -43.5905 -10.992453
131.07181 -58.371555 -14.856083
157.34348 114.7602 -19.475365
100.0118 -41.532299 -10.722026
109.96725 71.464844 -12.752803
128.08351 -95.794075 -14.41107
136.30003 -65.937157 -16.619526
133.5128 117.9573 -15.127013
108.96603 66.464188 -12.524572
116.58338 -94.078903 -13.052329
150.21339 -79.224846 -17.857903
161.57471 118.32864 -19.400558
168.30937 113.39661 -20.228783
164.98982 -113.25481 -20.928301
152.69861 -77.930603 -17.936289
141.1087 -71.27681 -17.583467
113.86517 90.019173 -14.230628
160.61494 112.77895 -20.323425
107.46674 78.172539 -13.484337
110.21111 75.158333 -12.842629
107.26345 80.735168 -13.538642
134.24588 -85.993668 -15.467338
107.90421 85.072899 -12.451979
144.6666 157.61775 -17.640585
120.08346 -49.211246 -15.646785
146.56721 -78.440796 -17.830153
109.35177 87.006775 -13.436239
146.44762 -80.462776 -18.492533
97.256424 -22.161852 -12.296403
119.06644 -84.53756 -14.831385
96.495209 -24.744108 -12.257672
143.00578 157.37155 -17.503325
152.34805 116.34162 -19.254797
115.99994 -85.299889 -14.456705
130.40735 115.67438 -16.465025
123.00108 112.42333 -15.52393
113.40807 92.750168 -14.282222
162.04686 115.38596 -20.180386
116.43118 107.83725 -14.710422
135.29428 117.08681 -17.050207
113.36807 103.21179 -14.311957
99.639145 -39.542049 -12.602128
139.97562 117.36426 -17.67314
112.68845 -88.396309 -16.68985
142.53883 -109.23392 -20.450676
157.53549 134.08182 -19.653934
112.40538 94.986053 -14.466528
113.81828 -85.841301 -16.661461
112.62682 97.430855 -14.233346
94.271111 -29.359701 -11.933223
113.85825 -86.809769 -14.626558
146.05977 117.18337 -18.474522
93.444664 -32.439232 -11.759508
110.10255 66.223778 -13.867877
148.00581 -111.23087 -20.881626
105.65688 -44.066883 -13.348698
101.83633 -42.140575 -12.892245
94.009956 -34.996342 -11.868085
123.1677 -85.144814 -15.63728
159.78258 -113.79333 -20.207157
97.08902 -38.147137 -12.256907
109.01332 -45.03442 -13.841841
113.78185 -91.079056 -14.436952
123.98428 -104.43464 -16.4011
162.19232 -113.76938 -21.255127
174.02475 -107.84866 -22.054081
124.48701 -104.50742 -14.976782
179.228 -102.56761 -22.658155
116.62774 -102.09213 -16.99176
114.58842 -100.80043 -17.506937
112.77737 -98.947197 -15.971164
182.91342 -96.017693 -23.080492
129.36479 -96.399391 -16.347099
137.83374 -95.81234 -17.293736
143.97964 -95.897697 -18.188856
117.22668 -94.879997 -14.829869
148.90451 -95.166397 -18.81101
114.58147 -93.389549 -14.871153
184.61514 -89.785927 -23.318975
154.9584 -90.063599 -19.575794
112.13696 -87.707962 -17.355349
157.77699 -87.819504 -19.931866
127.19282 -85.632484 -17.22389
158.85344 -85.397003 -20.067852
124.28777 -85.986031 -17.751989
184.70654 -82.853996 -23.27487
121.53819 -84.81926 -17.149961
148.17035 -84.316101 -18.718266
157.66588 -83.337196 -19.91783
154.36908 -82.605904 -19.501345
141.26604 -81.627769 -17.998415
152.26779 -77.771835 -20.218218
182.92172 -63.503941 -23.124102
128.80518 -56.239418 -16.673933
126.01649 -53.045757 -15.978526
181.06467 -49.79348 -22.876867
175.97063 -26.958431 -22.212055
174.88901 -16.67462 -22.157223
97.66349 -17.32168 -12.879732
96.572174 -13.861976 -10.853413
94.632774 -7.7557259 -13.395965
172.96626 -6.955986 -21.839172
169.98906 1.44841 -21.554094
94.967316 7.3819895 -11.925714
166.94882 7.9479365 -21.576687
94.280945 21.485456 -11.957885
95.378395 29.652914 -11.942784
98.461601 41.863991 -12.274948
171.10475 51.248493 -21.647989
173.38177 59.163094 -21.750078
111.33906 64.918663 -14.76825
175.25806 64.240402 -22.140238
108.32189 66.600517 -14.427394
176.54781 69.090797 -22.303171
176.42458 81.311493 -22.283836
107.9182 85.098793 -14.01195
170.09837 107.72442 -19.079662
169.38649 108.51295 -23.4342
163.05067 113.57172 -22.720621
164.84714 120.1639 -21.308638
142.79314 157.20107 -18.33629
143.54759 157.86409 -17.14839
135.74142 -107.26605 -19.158459
132.55269 -82.858978 -16.688231
160.96614 118.75367 -20.747875
144.38315 158.13417 -18.632452
112.33278 -87.369278 -16.239574
133.78281 118.62752 -19.487104
150.44258 -79.349586 -20.199913
111.47327 -94.666481 -14.083651
110.17127 -92.426445 -15.046678
161.77432 118.40324 -22.093721
167.12816 114.9691 -22.453426
143.70277 157.36264 -19.207001
153.05443 -79.355576 -20.982878
110.34554 74.548248 -14.731554
118.50285 -84.985573 -16.677504
115.79504 -85.783203 -16.5047
108.98987 87.177383 -15.975818
146.56458 -78.344803 -19.604788
114.25177 -91.46656 -17.17494
112.73839 -88.214378 -17.492767
123.03562 -85.768188 -18.208906
95.963593 -13.681365 -15.265093
170.8569 104.23901 -24.00938
145.03217 118.65286 -21.198282
141.0242 -70.984764 -19.317589
117.20271 -47.539692 -15.12007
163.36003 119.77029 -22.645359
126.40075 -52.851177 -19.804609
166.45422 -112.29785 -23.065523
162.69498 118.77654 -22.64949
119.54887 -83.483856 -17.436447
117.67653 -83.170799 -17.111265
151.07344 -111.97887 -22.43902
110.02742 69.783951 -16.091581
138.03532 119.05573 -19.994324
116.75501 -94.347404 -16.390223
112.9706 89.278915 -16.17576
114.42017 -86.755775 -17.404531
150.03424 -78.813995 -22.260597
112.93038 74.460968 -16.881145
172.62485 -108.15245 -24.507059
111.64288 64.943871 -16.71397
129.20807 -95.914116 -18.00045
135.05519 -64.415092 -19.011726
109.87872 66.193573 -15.790952
92.579193 -29.216892 -15.307626
176.31114 -104.82662 -24.780001
129.87915 117.81234 -19.195965
95.227844 -37.4039 -14.015373
92.490883 -32.183594 -14.883035
104.76881 -44.790699 -15.074447
180.222 -100.09735 -24.90782
184.00664 -84.234093 -25.280479
93.055908 -34.806004 -14.863158
98.345581 -41.39452 -16.262127
156.98015 114.894 -21.763508
101.34806 -44.090225 -16.305708
97.688866 -39.048939 -14.377258
133.40602 -82.933479 -19.385788
166.46019 112.3595 -24.195621
110.91331 63.737949 -18.920708
182.59286 -93.825722 -25.817038
160.78169 -113.1718 -23.395605
147.80313 -77.847748 -21.272282
183.8439 -89.679588 -25.391319
148.20255 -84.820335 -21.929485
116.36448 111.41927 -17.674732
164.10248 17.620173 -25.328255
140.62788 -85.153076 -20.943115
110.00655 96.355492 -16.171576
133.30304 -86.034172 -18.952383
181.30501 -58.654884 -25.306726
93.91423 -25.493959 -15.065586
108.43082 99.225029 -17.185547
162.50197 112.68886 -23.690882
174.4617 -26.002504 -24.381351
124.13684 114.97005 -18.101303
173.89331 -17.128159 -24.431374
152.02904 117.139 -21.556597
96.091057 -17.136913 -15.655539
153.60571 -83.641434 -23.133993
111.88448 -96.296318 -17.286726
138.66261 -82.049545 -20.358938
116.32645 -48.289597 -18.305878
172.52267 -9.1586876 -24.408371
176.57361 -34.617771 -24.809202
114.08118 -90.125595 -18.692682
180.03683 -50.409828 -25.28825
169.83282 -0.40366197 -23.828125
151.36789 -80.495995 -21.873739
113.06435 108.20565 -16.97821
111.99587 92.129341 -16.82753
164.86807 113.89866 -23.833149
113.90049 71.211143 -17.578751
94.761032 7.7216778 -15.217245
110.3243 -92.485138 -17.615879
121.19466 -102.50484 -18.971098
173.06532 93.636276 -27.080873
153.51041 -78.912643 -22.125359
182.81273 -70.328247 -25.020477
116.5562 -92.834999 -17.844566
129.16458 -105.48803 -18.090355
111.44667 -46.826553 -18.624905
155.23204 -81.205177 -22.838343
155.96574 -87.07885 -23.49164
167.76553 -110.80544 -25.681013
179.67009 -57.617046 -25.950701
153.74104 -89.864502 -22.342396
109.06215 103.57685 -17.639961
125.88155 -87.715652 -20.989254
181.52007 -78.736343 -26.656099
133.43806 -86.989983 -21.276636
115.03653 75.25428 -17.840881
109.24397 75.979111 -16.816496
180.79121 -97.434761 -25.936714
111.82485 89.250694 -18.000208
129.17287 -94.633492 -19.530344
160.62598 112.88203 -23.391436
105.55815 -45.198929 -17.270121
155.33795 -84.19677 -23.655926
113.007 -87.551414 -18.01685
183.0601 -86.461296 -26.376108
168.02995 40.648708 -24.914618
107.4064 85.050903 -16.80744
156.13867 -85.732353 -23.951736
116.06592 -88.406616 -19.372641
117.17529 -86.942497 -19.171509
143.08714 -80.462578 -22.006462
117.04615 -90.659325 -19.200249
166.96748 108.70273 -26.095699
118.15173 -83.809639 -18.409592
176.24036 -42.985703 -26.235325
107.2286 78.2873 -16.978163
116.66262 -101.19937 -19.587873
181.95772 -87.500351 -26.780703
173.5854 -29.20207 -25.809746
106.86287 81.032898 -17.008886
121.0818 -51.044895 -20.122583
129.77957 -55.74931 -20.361567
94.425148 -4.55234 -15.174015
137.4088 -95.272598 -20.917999
175.27097 82.28447 -27.241978
113.55508 -98.247787 -18.777901
135.99055 -106.69026 -20.448227
117.50751 -96.909988 -19.012817
175.48587 68.600998 -25.802357
136.35887 -65.347412 -21.089462
102.90993 52.291912 -15.757839
94.205986 21.232399 -15.731503
176.20187 74.278099 -25.927118
105.70762 56.716476 -24.956078
100.26224 48.025654 -16.536524
123.00238 -93.717003 -18.902489
124.60397 116.50839 -19.864697
174.11671 63.873402 -25.829206
172.47018 59.369171 -25.511786
152.86673 -78.433907 -23.66444
115.16835 -87.610779 -19.480869
170.60246 52.653984 -25.54217
123.46047 -91.676651 -19.997957
172.81296 -24.142717 -25.868729
110.42187 86.476868 -18.330101
177.34039 -101.88355 -26.574978
98.186707 42.283112 -16.584457
180.63504 -92.677391 -27.332745
132.93991 -83.910118 -20.694427
111.25813 75.629852 -18.362299
93.125603 -35.119183 -16.65604
124.12849 -86.50441 -19.907495
96.048141 -37.862164 -16.489082
95.171913 29.37849 -15.951661
133.09624 -87.927795 -22.18022
121.4045 -97.573517 -20.1175
145.27922 -73.022156 -23.278067
112.45197 -95.319824 -19.059755
164.96269 -112.20052 -24.969765
94.290649 -20.182802 -16.601269
132.21187 -93.803276 -21.334223
152.12793 -80.877335 -23.951281
144.01819 -95.727798 -22.399771
121.59218 -86.465736 -20.139864
112.78121 85.185608 -19.379225
152.84149 -88.850899 -23.542948
95.086044 -9.7687407 -16.850914
107.88783 95.092003 -17.951408
171.92859 -19.882647 -26.701254
128.47052 -91.011612 -21.846001
179.39276 -69.804939 -27.720037
145.57712 -85.560158 -22.886696
171.60327 -107.88423 -26.541107
117.5433 113.05151 -19.371796
129.09682 -86.212585 -20.911037
153.78493 -111.97372 -25.011992
137.33961 -65.418304 -22.539124
115.12528 77.972832 -19.003838
115.69894 -98.651283 -19.784918
176.83968 -99.72506 -27.633129
119.84239 -99.837067 -20.457588
109.8391 83.920265 -19.378149
180.78008 -87.637413 -27.718088
137.75821 -82.471451 -21.80895
151.96953 117.03753 -25.050371
114.65514 -88.333351 -19.28426
155.38594 -81.922974 -25.147144
116.52824 -97.472748 -19.951633
157.65579 -82.201912 -25.856239
146.14015 -109.67342 -24.534689
116.5495 -88.774094 -20.358379
112.59436 -90.034508 -19.465437
94.599091 -17.647783 -16.925667
164.1987 -113.21396 -26.827696
125.57911 -87.849854 -21.42613
108.53005 78.115402 -18.564405
179.41037 -64.399315 -26.973759
128.87808 -103.1532 -20.827457
164.44611 11.955549 -26.201294
163.70473 110.03125 -26.545666
148.94406 -94.733803 -23.723997
170.05479 -9.3153868 -27.242996
177.20828 -55.833534 -28.183563
117.78505 -99.045403 -20.005146
162.29533 -112.28787 -26.052626
137.93105 -105.17455 -23.681679
136.50758 -86.790573 -22.646788
108.07664 80.993599 -18.6509
169.81351 102.1552 -29.50172
114.21592 81.474052 -19.762314
154.40013 -79.508507 -24.862078
179.21211 -82.986496 -28.122116
150.74585 -87.106361 -24.384331
124.93832 -99.38736 -21.894854
115.33195 -93.456482 -20.077478
175.56349 -45.304539 -27.589094
122.80232 -89.656189 -21.520653
135.04921 -85.841805 -23.785534
120.17091 -87.350563 -20.790977
143.56517 -106.98631 -25.725048
110.90084 77.98069 -19.67272
178.65253 -92.002647 -28.137207
165.64569 5.8414302 -26.237909
168.51151 105.0975 -28.475706
95.110847 -12.516356 -17.49181
91.750587 -25.277662 -18.213951
114.82388 -96.384079 -20.632154
136.22809 -93.109001 -22.628597
137.10036 120.21487 -24.108519
175.36293 -101.1038 -28.261774
95.099716 7.6406813 -18.448606
178.36668 -87.747612 -28.178967
130.16814 -55.236057 -22.294672
166.8959 -111.89207 -26.948984
159.47733 -111.76642 -26.07128
163.59508 22.264799 -26.257322
146.0424 -78.637444 -25.732557
116.38501 -98.116592 -21.264647
136.71213 -84.644249 -24.341309
132.41437 119.70237 -23.330904
130.20285 -89.492661 -22.444546
115.6199 -89.961281 -20.66066
150.85664 -76.753975 -25.026423
110.94415 108.959 -19.712889
113.12098 -46.601818 -21.446718
117.82832 -96.412079 -20.558916
169.03116 -3.3903501 -27.085384
101.34473 -43.841522 -18.996574
171.06822 -107.63875 -27.302046
167.43575 1.17092 -26.932499
90.645653 -12.365218 -17.63702
128.05449 118.79664 -22.80794
122.96067 -96.001022 -21.865601
109.95789 80.790802 -19.740677
154.79588 -80.96286 -25.872484
125.0594 -89.833366 -22.101738
176.58244 -71.210304 -29.155445
164.17542 28.814764 -27.402061
123.77334 -89.312042 -22.126011
121.41087 116.66962 -22.788973
135.89877 -61.486965 -23.538837
136.41792 -90.646355 -24.205816
168.07249 -110.55312 -27.917742
174.63242 -49.799843 -29.113977
170.56815 -31.404013 -28.725086
140.45596 -65.065247 -25.009703
90.702858 -16.852913 -17.837933
135.79857 -101.82535 -24.490778
94.888428 -10.1801 -18.254534
151.83507 -78.598022 -25.991388
121.03676 -92.356186 -21.858774
177.12485 -92.48085 -29.380367
106.20844 -44.785732 -22.006416
177.02888 -63.521843 -28.811949
130.58257 -88.014244 -23.354338
122.56511 -89.932404 -22.288303
165.11731 -117.8827 -28.203936
145.33643 -108.49972 -26.022198
159.95854 111.7817 -26.83353
112.96978 111.44365 -21.125153
139.33757 -81.277588 -24.388655
124.97006 -93.45504 -22.562016
91.074791 -27.998384 -19.492823
163.01535 -112.1348 -28.260679
176.60875 -88.279869 -29.735851
142.89609 -92.831902 -24.715725
154.30951 -79.415833 -27.316463
166.79802 -116.30893 -28.774212
94.0728 -34.735954 -19.414
95.518562 -3.67906 -18.898689
174.02229 -79.309235 -29.363482
98.246284 -41.654594 -19.312809
129.48416 -55.102169 -24.725496
166.50632 107.28528 -28.073685
150.95108 -110.79914 -26.674673
158.24284 -83.289078 -27.173372
145.22375 -68.18679 -26.110119
142.72977 -88.4478 -25.010859
137.32439 -89.508965 -24.49703
142.28612 -79.694702 -24.988216
164.90181 -111.51757 -27.798552
92.030975 -30.55044 -19.734217
120.71737 -50.423531 -23.140583
135.09995 -59.31316 -24.872789
106.07714 105.57135 -20.958776
169.26463 -107.51305 -28.757017
167.87212 -23.778351 -29.667418
173.27132 -79.954376 -30.065174
86.696098 -14.566829 -18.525398
148.57994 -92.319603 -25.912197
163.28726 -85.089844 -29.209108
163.66847 -115.88331 -27.910107
89.267525 -22.338346 -19.287918
165.91258 37.567368 -28.377449
152.62747 -75.096634 -26.500244
161.47723 -83.639267 -28.665308
92.071617 -24.907206 -18.955948
148.92123 -89.672203 -26.0909
168.91246 -12.579103 -28.605038
131.87201 -92.669189 -24.880901
129.60866 -98.697807 -23.629244
90.228722 -9.7501097 -18.708195
115.26321 76.299637 -22.308567
174.62 -56.429646 -29.448885
161.3759 -109.76221 -28.263477
132.94696 -89.24324 -24.975998
146.74356 -109.86446 -26.293531
94.923195 20.929134 -19.904074
164.08159 -119.28494 -28.766834
104.84682 94.023499 -20.760138
157.92233 -109.59125 -27.951677
130.83092 -96.717606 -24.616217
163.49161 -111.58601 -28.760307
95.200333 -8.0474501 -19.675207
171.61182 -68.268974 -30.757265
86.302773 -10.732354 -19.227558
144.26199 119.26867 -26.152882
172.75078 -98.654442 -29.861057
114.26692 78.379944 -22.004019
113.32918 69.775467 -22.340908
168.83958 51.50388 -29.278807
105.35483 91.68383 -22.014463
140.88501 -63.942104 -25.762804
168.05174 -109.84232 -29.550116
167.70778 -114.95535 -30.352308
164.87135 -110.36768 -29.0285
146.04831 -105.81634 -25.978497
138.28447 -82.309845 -25.905308
170.62965 59.16048 -29.398901
112.05411 83.503242 -21.127167
174.66563 80.744003 -30.116985
102.39886 51.813297 -20.979847
102.08208 98.195496 -20.904295
168.07138 -34.833019 -30.500065
153.13326 -109.23584 -29.090511
136.96268 -99.472778 -25.932093
142.92778 -102.8029 -27.734894
173.63521 67.623398 -30.111324
173.28375 -83.262001 -30.6166
172.05884 63.087299 -29.935307
136.12186 -86.91069 -26.001501
96.058426 2.0096226 -21.253418
100.31869 48.040077 -21.034742
165.27666 -118.16142 -29.901186
174.88101 73.349998 -30.3668
109.96725 111.10806 -23.35323
174.30241 -92.257835 -30.58367
167.55032 -5.63661 -29.472347
114.10252 -47.150009 -23.562225
169.33208 -72.589172 -30.829342
85.472031 -14.719211 -19.348831
95.755783 29.116964 -20.494307
2.1957431 -25.065176 -8.6050377
114.15753 115.29655 -26.27519
98.138893 41.19434 -21.266697
156.77461 -76.112099 -29.050579
135.48541 -96.056976 -26.28142
151.64388 -72.422203 -27.677319
166.83809 -109.00314 -31.024002
145.64185 -106.89842 -27.518478
160.78229 -80.703827 -29.758625
159.35027 -107.07635 -29.060457
1.9615102 -29.904402 -8.9866486
100.35911 95.46196 -22.292004
166.78755 -14.476676 -30.290726
168.19052 -44.290756 -31.069254
161.30112 109.1729 -30.65641
146.34709 -107.01752 -29.675591
101.79295 100.95175 -21.412426
149.32899 -110.10704 -29.052097
145.19221 -105.41813 -27.310677
142.31618 -79.68074 -26.637918
161.68904 7.9815326 -31.801304
102.49944 -43.140663 -23.160391
162.24123 21.751339 -29.375851
90.350029 -8.1084442 -20.12989
163.69576 -85.699142 -30.158922
84.800842 -12.593283 -19.497782
80.134514 -14.9547 -19.056755
165.99559 -1.11971 -29.795265
1.226189 -21.567785 -9.2178192
91.585907 -27.367292 -20.433867
147.33809 -78.697166 -27.584608
173.23193 -87.847916 -31.085196
169.00133 -98.68573 -30.894539
4.6687889 -27.192411 -9.6568441
155.9068 -106.56765 -29.542742
165.12657 -121.4892 -31.15786
147.88815 -103.37858 -29.119371
79.290855 -13.330608 -19.097618
123.83283 -51.626175 -24.60111
96.878479 -4.4499469 -22.033779
159.08842 -83.852531 -30.476652
163.03261 -108.7365 -29.576765
136.48499 -89.207695 -27.12286
5.4424362 -17.407343 -11.05181
154.03426 -79.853226 -28.823606
171.8804 -63.766602 -30.877127
2.0371788 -28.236858 -9.6460094
123.01472 118.04714 -26.241993
164.03976 -123.6748 -31.478884
83.157028 -16.863125 -19.940609
146.83989 -108.5092 -28.801483
140.56688 -98.032021 -28.487797
165.83859 -86.100311 -30.819065
163.03102 -108.00201 -30.116909
163.30588 -89.275421 -30.27424
83.796646 -11.004854 -20.33812
139.28586 -81.479561 -27.06917
6.8990746 -21.046144 -10.672583
98.914238 98.854591 -22.366882
148.40726 -107.31713 -29.53108
146.78789 -68.300301 -28.010004
94.082817 -33.235306 -23.943825
164.0029 -110.41203 -30.403187
98.811401 -40.468929 -22.442682
86.939751 -24.908627 -20.99382
168.78773 -74.632439 -31.194357
1.0121714 -21.553583 -9.9957762
89.118874 -26.474974 -21.066233
1.9143387 -22.211422 -10.222132
171.6102 -91.217674 -31.439486
7.9928651 -23.936367 -11.089853
7.8628421 -20.622066 -10.505398
165.75037 -105.14154 -30.254322
83.340637 -19.93177 -20.387358
163.10693 -104.76096 -30.254555
96.22271 -6.9135594 -22.12653
84.976959 -23.935249 -21.254211
167.34631 -114.38392 -31.912861
142.97363 -64.656403 -27.780077
85.041817 -8.4388542 -21.462978
166.52632 -102.25299 -30.477865
171.20084 -84.129501 -31.421833
147.96077 -109.18784 -29.306952
129.66379 -54.585976 -26.37669
137.84451 -61.071556 -27.354879
150.79976 116.59613 -30.17185
131.69139 119.90491 -27.155645
153.79495 -72.010147 -29.399258
159.83151 -105.81624 -30.392475
127.32831 119.08252 -26.81967
162.4738 26.8239 -30.417727
146.19398 -79.613503 -28.562233
10.442271 -20.788136 -11.529866
63.608391 -16.50214 -19.414183
5.7779446 -16.431538 -10.966856
169.74213 -87.839104 -31.476997
7.7237325 -16.428988 -11.487253
10.307933 -24.830843 -12.039334
138.98451 -83.014946 -27.807425
167.27274 -97.022614 -31.278833
167.59357 -77.716164 -31.274012
96.811043 10.685666 -23.424238
117.6851 117.11898 -27.208532
100.91108 104.12418 -23.408934
136.40384 120.16393 -28.30122
163.08728 -94.605515 -30.869331
164.40263 -108.20304 -31.019222
145.55164 -100.97921 -29.427856
161.10442 -76.652046 -30.594563
145.98056 -102.23662 -29.69047
73.658516 -20.034594 -19.888868
138.28726 -93.141594 -28.081572
53.688641 -16.73344 -16.913954
165.90775 -54.978333 -32.479908
167.34225 -88.265152 -31.441559
105.4569 88.154114 -23.560434
71.021957 -17.645342 -19.604706
167.58737 -83.126007 -31.42049
160.21017 -102.88255 -31.058428
1.2739387 -33.435684 -12.868076
107.06774 -44.569984 -24.113289
91.526535 -29.786301 -21.851217
162.12425 -99.112885 -31.076178
69.646194 -11.364992 -20.052868
160.31317 -43.536068 -34.142136
162.94354 3.21381 -30.952002
54.041737 -19.164858 -17.136055
1.9691265 -32.013275 -11.738577
165.60588 -8.3317699 -31.340143
154.67278 -82.604706 -30.489738
159.69333 -87.541138 -31.578684
154.61818 -106.10751 -30.694113
58.853519 -17.234112 -17.842716
162.3246 -74.199432 -31.159328
143.83459 -63.295246 -29.275274
165.33157 -118.77308 -32.036385
2.2557192 -31.86157 -10.33173
147.13913 -107.76485 -30.33868
163.58194 -24.796532 -32.057423
56.847706 -18.359116 -17.759066
166.40204 -112.75393 -32.889053
165.09708 -70.290916 -31.716652
89.556152 -7.233561 -22.019777
80.231079 -23.103384 -21.058363
138.32968 -89.74424 -28.466553
164.05165 106.2918 -33.527855
1.0112482 -18.109097 -10.795842
58.246075 -20.577641 -18.247919
163.09091 33.442863 -31.473536
164.76501 -123.16407 -32.809807
156.77675 -102.56499 -30.614037
112.07456 78.802933 -24.964773
8.5721998 -25.792921 -12.352148
140.07983 -85.669037 -28.710041
49.208683 -18.200186 -17.308163
162.46272 -113.49992 -33.637676
63.476837 -13.887793 -19.490395
82.565338 -9.8992462 -21.450853
146.42946 -82.644279 -29.708307
10.33753 -16.756195 -12.892303
161.44669 14.176274 -31.317461
1.831241 -29.057486 -15.365499
96.409851 100.73804 -23.43293
162.69102 -70.41687 -31.581959
0.47512022 -18.981037 -11.561123
135.08286 -57.92284 -28.043249
58.522461 -14.551085 -18.166142
150.39853 -104.11391 -30.377934
48.874802 -15.3631 -17.181316
94.660797 98.30069 -23.809362
122.53928 -49.562363 -28.484375
114.45307 74.517807 -26.090275
126.05837 -50.976711 -27.9305
154.10828 -104.72067 -31.168421
163.04115 -38.132053 -32.509594
165.10138 -121.06865 -33.201603
55.140442 -13.130039 -18.027687
118.69069 -49.195 -26.100193
145.89497 -63.041611 -30.01132
151.66132 -102.47363 -30.939157
163.39214 -66.532455 -31.719269
51.878487 -11.691366 -17.944357
151.04082 -107.99025 -31.168798
158.65671 -94.461258 -31.510706
164.00128 -115.28826 -32.739956
87.128639 -28.870098 -23.455996
162.58524 -113.66929 -33.051983
170.84048 94.006599 -34.692329
128.3499 -51.99651 -28.026386
22.288364 -14.565041 -14.074718
62.891682 -20.224249 -19.702417
161.81291 -31.159105 -32.766415
161.47185 -47.450764 -33.542984
92.634575 -30.766903 -24.992542
163.99498 -4.4337401 -31.988052
19.271811 -16.214275 -13.794526
161.76154 -22.457197 -33.188919
55.99276 -21.303034 -19.097792
1.6873413 -19.89456 -11.5126
98.458366 94.13488 -23.772577
163.66637 -112.87782 -33.6394
66.58596 -20.482845 -20.020998
114.05304 -47.665649 -25.84798
20.941517 -12.189268 -14.186931
22.980461 -17.444834 -14.585475
165.74586 -57.288696 -32.6838
89.873573 -28.624823 -22.910063
17.653711 -13.508971 -13.79731
131.86346 -53.909569 -28.415459
150.216 -100.26653 -30.90288
111.39285 66.58606 -29.343977
103.37878 108.76891 -25.235979
13.657606 -19.820797 -13.544457
167.51976 58.505432 -33.72765
146.16399 -88.773628 -30.513351
146.78177 -103.13234 -30.116125
164.25633 42.48851 -32.368763
103.4121 -42.410316 -25.059544
149.93585 -103.77677 -31.214521
81.773857 -25.408823 -22.157595
4.4512634 -14.300534 -12.578832
72.067215 -23.22139 -21.154228
146.20897 -93.818771 -30.503323
94.273735 96.342232 -23.691784
96.491508 104.59087 -24.475828
154.11404 -87.306145 -31.520767
16.279083 -18.298161 -14.149319
165.41112 -116.7067 -33.954151
109.48965 62.473347 -26.351076
52.403664 -9.6154594 -19.098633
164.79045 -126.59695 -33.341915
53.446812 -9.1103973 -19.244867
56.407841 -9.5277815 -19.726057
98.244904 3.3510244 -25.138653
110.07868 113.22 -25.773849
153.20692 -92.211662 -31.615234
99.772591 -39.788799 -24.503839
135.99353 -56.445351 -29.054493
64.696182 -9.2185011 -21.342491
25.797781 -15.900791 -15.45578
44.139122 -14.857674 -17.867981
99.746094 105.75333 -24.787018
82.224892 -8.9169464 -22.995037
16.033344 -14.908239 -14.560233
96.716599 21.509949 -25.049068
61.372925 -10.574651 -20.005911
13.386481 -23.276825 -14.430132
19.885489 -18.03916 -14.652213
5.78968 -14.049781 -13.321365
44.818516 -17.85191 -18.139547
161.68596 -57.509392 -33.376926
152.08513 -62.443455 -31.747421
6.7298326 113.59826 -12.984687
13.497776 -16.193161 -14.354305
148.70343 -106.71214 -31.246298
151.33067 -104.39596 -31.570375
162.00352 -12.738726 -33.721699
147.98921 -105.74841 -31.474121
100.0573 -5.6862717 -27.823126
162.33733 -62.516602 -32.344692
9.0702143 -27.211378 -14.876105
143.28369 118.77085 -30.508505
1.7226583 111.32919 -12.79871
156.98294 -61.93272 -32.226124
149.32542 -107.88812 -30.973707
9.7383728 111.93239 -13.684155
25.913879 -17.430712 -15.783807
12.042065 -26.065138 -15.274049
39.713921 -16.586666 -17.577488
16.419243 -11.647243 -14.398961
8.1081066 -15.179102 -13.841241
7.0979776 110.06336 -13.494768
16.199793 -20.559631 -14.83695
131.62352 119.47868 -29.493368
105.05075 85.067581 -26.399979
10.521802 114.82533 -14.194091
97.291557 -6.4493685 -24.652233
1.3351845 -20.093489 -12.419028
150.18358 -58.22414 -32.578369
23.367336 -11.512089 -16.299583
89.37011 98.603645 -23.991966
161.26373 -18.906134 -33.716728
57.832954 -22.225462 -20.156761
102.75657 52.018028 -25.674732
36.772949 -14.632604 -17.396456
1.7841358 -34.167637 -14.378194
96.402298 -35.026775 -25.038734
33.856712 -17.964048 -17.262663
28.283165 -14.744543 -16.214493
92.007248 95.07679 -24.308786
18.528629 -10.068411 -15.243867
62.772301 -22.713215 -21.435877
80.708931 -26.348021 -23.16437
2.4986651 -15.545473 -13.400738
46.238167 -10.004751 -19.634615
69.103943 -24.454802 -22.340042
53.601276 -20.614183 -18.172152
10.970992 -15.623065 -14.823299
52.455082 -21.899124 -20.848686
100.54624 89.405785 -26.13257
11.477986 109.00381 -14.805818
3.3841217 111.77701 -13.595052
95.773888 92.822044 -25.703529
100.81426 -38.350815 -26.603546
97.035133 105.61076 -25.407204
85.81591 -7.2208948 -23.958319
100.92281 47.743839 -25.918066
163.02446 -119.98457 -34.3493
82.202255 -8.5323086 -25.176239
97.251076 29.678907 -25.325928
27.622635 -18.895409 -17.355682
37.909027 -19.191803 -18.775917
3.8724334 -14.213115 -13.640076
8.4107933 106.39227 -15.303647
104.03584 -43.11079 -27.865549
83.335381 99.491333 -24.238758
12.47172 108.46212 -14.683466
9.5180092 114.98213 -14.701355
44.404167 -19.743031 -19.667261
9.1315775 113.85465 -14.778277
18.481781 -19.781292 -15.779038
23.997585 -19.1507 -16.418701
107.63529 -45.476898 -26.923779
159.85635 -4.3743205 -35.238258
99.395439 42.680946 -25.94022
28.00493 -12.162348 -17.413578
171.82355 89.173653 -35.426704
98.53978 38.202896 -25.871365
157.51846 6.7822571 -36.690899
88.348198 104.68823 -25.696003
159.9973 21.5564 -33.624916
48.610401 -20.659412 -20.47625
41.800594 -10.514531 -19.343405
143.23305 -53.660583 -32.818474
15.257988 112.28623 -15.721705
136.10541 118.81602 -33.141136
160.73634 0.022146391 -33.957092
168.66982 61.884201 -34.85265
80.70919 103.31301 -24.286943
16.231819 -10.006983 -15.634378
94.95826 -31.32509 -27.552029
101.07249 108.96041 -26.582239
158.37466 -36.955444 -34.526165
148.72369 -51.842735 -34.381275
14.846281 -11.855663 -15.606728
122.56232 118.527 -29.147264
72.983978 -8.0514355 -23.757948
155.82857 111.43649 -35.26244
149.73415 115.71337 -34.525265
13.209052 -14.752907 -16.530581
150.47092 -49.416149 -35.111244
89.417664 -30.266279 -25.946144
92.450127 92.025795 -26.141928
35.834366 -11.883225 -18.549053
59.327614 -23.113625 -22.862564
23.617998 -9.6259832 -16.981138
91.559227 -30.049351 -25.516069
8.9428759 105.45261 -15.237391
88.49231 94.339111 -25.195724
108.1109 113.69674 -27.612953
14.464337 -13.554777 -16.451107
172.93471 79.849998 -35.824043
18.992853 -8.5379009 -16.591354
96.653496 17.474205 -24.556063
85.034973 103.22188 -25.53463
111.94695 75.909256 -27.897879
136.20871 -51.26918 -31.459211
-2.071224 110.40796 -16.334497
48.634251 -9.2121239 -21.334694
53.69054 -8.2544527 -20.98914
64.71537 -8.4280128 -22.285507
98.61203 9.007822 -26.530945
9.1118145 -27.315817 -16.393534
14.5248 112.2078 -15.800384
133.18562 -49.409203 -31.931219
-0.42818338 110.33308 -15.304933
13.085324 115.82864 -15.811722
114.6461 -47.738991 -29.178114
3.3719115 -14.798211 -15.277026
160.03687 26.6124 -34.52457
90.377197 107.17426 -26.237728
25.379963 100.48833 -17.451342
34.942623 -9.3123693 -19.051779
-0.72683895 110.13065 -14.520097
63.657188 111.83513 -22.426676
172.54634 71.988197 -36.201447
126.5268 -48.253231 -31.748013
16.54384 110.79393 -17.119041
86.775574 -29.651539 -25.634567
170.8979 65.978699 -36.021423
156.31628 -49.712448 -34.643738
71.455101 108.83694 -23.760454
127.10708 119.24 -30.584103
15.321897 -9.8624163 -16.966608
14.489616 107.41972 -16.28492
2.3822589 111.09435 -19.250465
14.908987 -23.401834 -17.136391
112.81918 70.938271 -31.917803
113.94444 116.227 -28.987095
23.32971 98.554222 -17.581211
78.217766 -27.015162 -25.369478
27.819912 97.935616 -18.435522
18.015308 -20.834421 -17.690514
58.638134 110.59571 -22.232723
39.467361 -9.4483366 -19.953363
6.6568723 105.05857 -16.956156
23.198574 102.55874 -17.847958
21.563553 101.15258 -17.719267
19.788918 -20.675222 -18.026831
163.30646 50.324402 -35.33989
86.215202 -7.2057691 -26.315935
21.714233 -19.816317 -17.529331
10.913532 -15.390392 -16.793316
16.530416 -8.0642433 -18.088655
154.20309 -31.129236 -36.172474
11.802074 116.22678 -16.573174
68.66552 107.17267 -24.490341
65.360359 111.12672 -23.394083
165.36678 101.69953 -38.847023
91.572319 108.14734 -27.348898
58.129387 108.56256 -22.329638
121.64402 -47.680027 -31.449867
21.382309 -7.818131 -17.672108
12.760525 103.69016 -17.478971
64.913422 109.9573 -23.540756
159.91364 33.538593 -35.384689
97.511772 109.38519 -27.969309
67.796333 109.51677 -23.693481
14.537162 -12.336774 -17.493504
75.854256 108.59116 -24.765892
112.96923 69.988945 -29.265608
85.855865 93.94635 -26.431746
26.994406 -19.211439 -19.110512
16.646181 114.44158 -17.449774
2.4312851 -16.791084 -15.746167
15.692543 104.10894 -17.700935
118.08847 117.593 -30.077375
51.718193 -21.625669 -23.033337
41.605221 -19.662312 -20.888107
69.59285 110.96552 -24.123676
1.5321259 -17.970495 -13.629761
101.13409 -4.0779195 -28.314184
1.019323 -33.483082 -17.969112
81.217392 105.5192 -25.785814
99.678635 -35.504826 -28.143797
68.69326 116.45749 -24.448156
10.191394 -27.285837 -17.675671
16.992006 106.62693 -17.972082
151.40088 -33.625832 -36.885098
161.24904 44.65102 -35.831085
168.17838 98.812462 -37.365013
157.6873 2.112601 -36.622372
131.612 119.264 -32.01712
22.469942 96.962021 -18.288366
64.570747 118.05814 -24.052423
29.554205 -7.8575168 -18.994484
67.194702 115.39887 -24.169415
31.505178 99.798622 -20.213881
26.245512 96.253616 -18.75428
54.629536 109.8183 -22.887686
164.1225 54.4324 -36.236637
58.22897 -8.2980442 -22.890053
8.3148956 113.47622 -17.17704
68.291794 -25.124111 -24.734755
98.551003 -6.5149202 -28.038101
13.601103 -9.4738073 -17.798468
17.339128 112.51373 -18.105673
19.363976 98.989403 -18.496502
23.685032 104.53246 -18.675751
83.337303 109.89691 -26.850645
93.56514 109.33117 -27.876806
18.670481 104.62347 -18.447834
145.89137 -53.590694 -33.418819
53.640892 -8.0917139 -22.434435
20.283573 -7.4616818 -18.564037
105.9904 113.44776 -30.571329
96.668495 89.620728 -28.514511
53.902603 108.34326 -23.083952
13.611588 115.76095 -17.275692
56.650879 -22.564629 -24.325771
94.258575 -30.488642 -28.930315
26.347397 104.04845 -20.256861
101.73432 -37.826954 -29.348881
152.81465 -30.219128 -37.318192
13.213299 -11.316851 -18.404814
155.78711 109.8312 -38.324146
0.36091775 -17.889261 -19.786478
11.192752 102.54826 -18.200022
157.70816 -2.8953619 -36.643562
122.42168 118.351 -31.48134
30.100328 102.01779 -19.937077
6.7010608 104.13036 -17.293303
37.93 -9.525938 -21.202213
21.906702 104.81189 -19.075308
70.488869 -8.6056538 -25.143892
106.35683 57.350452 -30.2295
109.12695 -45.786598 -29.876818
75.712265 110.53435 -25.918486
11.752028 115.12839 -17.150812
67.003113 119.49225 -25.164825
140.64204 -48.045128 -34.949535
89.441727 90.642197 -28.073233
21.206669 -19.831604 -19.411417
7.839076 -15.380797 -18.89394
91.838905 110.34183 -28.43235
1.1434066 -25.748816 -16.826033
156.68401 -11.664818 -37.519688
49.324024 -20.389721 -23.248983
112.3592 115.80596 -30.880863
8.6197529 -27.110741 -18.777309
65.021233 108.33453 -25.169708
28.65943 103.46873 -20.141521
12.144942 -25.778952 -18.958282
28.092642 -7.8561196 -19.931917
